ply
format ascii 1.0
comment Created by Open3D
element vertex 1000
property double x
property double y
property double z
property double nx
property double ny
property double nz
end_header
-0.0623056 -0.104635 0 0 0 -1
-0.0883391 -0.103228 0 0 0 -1
0.00552083 -0.103745 0 0 0 -1
0.0179142 -0.104049 0 0 0 -1
0.025239 0.100687 0 -0 -0 -1
0.00950076 0.101911 0 -0 -0 -1
-0.0550531 0.105578 0 -0 -0 -1
-0.018936 0.106281 0 -0 -0 -1
-0.0855611 0.102766 0 0 -0 -1
-0.0452973 0.097198 0 0 -0 -1
-0.0644877 0.0973156 0 0 -0 -1
0.0539072 0.0966351 0 0 -0 -1
-0.0899583 -0.0665874 0 0 0 -1
0.049126 0.0629417 0 0 0 -1
-0.0344977 0.0855236 0 0 0 -1
0.00872498 0.00954145 0 0 0 -1
-0.0227365 0.0522854 0 0 0 -1
-0.0125239 0.0712423 0 0 0 -1
0.0640541 0.093462 0 0 0 -1
-0.0041648 0.0374882 0 0 0 -1
-0.0187674 0.0820817 0 0 0 -1
-0.0641832 -0.0188464 0 0 0 -1
-0.0378859 0.0290393 0 0 0 -1
-0.0985006 -0.0596888 0 0 0 -1
0.0455101 0.0759079 0 0 0 -1
-0.0710757 0.00224703 0 0 0 -1
-0.092011 0.0652637 0 0 0 -1
-0.0395085 0.00453775 0 0 0 -1
-0.0152944 0.0228455 0 0 0 -1
0.0670239 0.0701845 0 0 0 -1
-0.0258043 0.0114526 0 0 0 -1
0.0929009 0.090432 0 0 0 -1
-0.0656243 0.0301346 0 0 0 -1
0.0267323 0.0517124 0 0 0 -1
-0.085946 -0.022503 0 0 0 -1
0.0140352 0.0307504 0 0 0 -1
-0.0616466 0.0736925 0 0 0 -1
-0.0151319 0.038953 0 0 0 -1
-0.0537369 0.0896203 0 0 0 -1
-0.0459153 0.0364743 0 0 0 -1
0.0066517 0.0583065 0 0 0 -1
-0.0271527 -0.00708438 0 0 0 -1
-0.104742 0.011754 0 0 0 -1
-0.0617757 -0.0035424 0 0 0 -1
-0.0229369 0.0931952 0 0 0 -1
-0.0253727 0.0240614 0 0 0 -1
0.0169687 0.0167186 0 0 0 -1
-0.0981596 0.00232993 0 0 0 -1
-0.0434128 -0.0065028 0 0 0 -1
-0.0741456 -0.0222572 0 0 0 -1
0.0160291 0.0556142 0 0 0 -1
-0.0704033 0.0601342 0 0 0 -1
-0.0630467 0.0837503 0 0 0 -1
-0.102118 0.0946949 0 0 0 -1
-0.104674 0.0741648 0 0 0 -1
-0.080971 -0.0378018 0 0 0 -1
-0.02931 0.0607649 0 0 0 -1
-0.0385507 -0.0156172 0 0 0 -1
0.0779905 0.0793218 0 0 0 -1
-0.0485086 0.0605672 0 0 0 -1
-0.01937 0.0642239 0 0 0 -1
-0.0528102 -0.0266747 0 0 0 -1
-0.091967 -0.0073407 0 0 0 -1
-0.0789066 0.0121931 0 0 0 -1
0.0379719 0.0468503 0 0 0 -1
-0.0759694 -0.011985 0 0 0 -1
-0.00258107 0.00271178 0 0 0 -1
-0.0397555 0.018803 0 0 0 -1
0.0395945 0.0864807 0 0 0 -1
0.0214623 0.0857044 0 0 0 -1
-0.0285478 0.072527 0 0 0 -1
-0.0872987 0.090603 0 0 0 -1
-0.0715615 0.0758743 0 0 0 -1
-0.0145948 -0.00405678 0 0 0 -1
-0.0902068 -0.0525673 0 0 0 -1
-0.00484708 0.0810639 0 0 0 -1
-0.0587653 0.0581847 0 0 0 -1
-0.0976917 -0.0860288 0 0 0 -1
-0.0980208 -0.0739527 0 0 0 -1
-0.0697172 0.0173459 0 0 0 -1
-0.0548233 0.0105905 0 0 0 -1
-0.078175 0.0845105 0 0 0 -1
-0.0625757 0.0412 0 0 0 -1
-0.0889328 0.0496271 0 0 0 -1
0.0566541 0.0722012 0 0 0 -1
-0.0994767 0.0219546 0 0 0 -1
-0.00243566 0.0150955 0 0 0 -1
-0.00314255 0.0954235 0 0 0 -1
-0.0752131 0.0946916 0 0 0 -1
0.0110351 0.0836346 0 0 0 -1
0.0134641 0.0416489 0 0 0 -1
-0.0710992 -0.0435332 0 0 0 -1
-0.0261517 0.0399291 0 0 0 -1
-0.0640268 -0.0314783 0 0 0 -1
-0.0955276 0.0848722 0 0 0 -1
0.0267665 0.0742932 0 0 0 -1
-0.0513754 -0.0422027 0 0 0 -1
-0.0909335 0.0385311 0 0 0 -1
-0.0470741 0.0729748 0 0 0 -1
0.0259181 0.0343666 0 0 0 -1
-0.00419759 0.0612333 0 0 0 -1
-0.0252854 -0.0176318 0 0 0 -1
0.0655441 0.083802 0 0 0 -1
-0.0762244 -0.0540217 0 0 0 -1
-0.0770981 0.0458057 0 0 0 -1
-0.0828927 -0.00248224 0 0 0 -1
-0.0855314 0.0752633 0 0 0 -1
-0.0841796 0.0294513 0 0 0 -1
0.0319483 0.0636181 0 0 0 -1
-0.0916733 -0.0363913 0 0 0 -1
-0.0903648 0.0124974 0 0 0 -1
0.0341556 0.0951361 0 0 0 -1
-0.0504758 -0.0168384 0 0 0 -1
-0.103534 -0.0203317 0 0 0 -1
-0.0822183 0.0578393 0 0 0 -1
-0.0321874 -0.0282616 0 0 0 -1
0.0818811 0.0894088 0 0 0 -1
-0.0427327 0.0462732 0 0 0 -1
-0.105722 -0.0498117 0 0 0 -1
-0.00344407 0.050713 0 0 0 -1
0.00663915 0.0225859 0 0 0 -1
-0.0556228 0.0271643 0 0 0 -1
0.0124931 0.0708121 0 0 0 -1
0.105228 -0.0529845 0 0 0 -1
0.0675091 0.0239256 0 0 0 -1
-0.0738075 -0.0727367 0 0 0 -1
-0.0693118 -0.0951335 0 0 0 -1
0.0732468 -0.0435468 0 0 0 -1
0.0843994 -0.0615207 0 0 0 -1
0.0185598 -0.0817778 0 0 0 -1
0.0898072 0.0589926 0 0 0 -1
0.0335603 -0.0170919 0 0 0 -1
0.0461143 -0.0837993 0 0 0 -1
0.0836856 -0.0853856 0 0 0 -1
0.0112973 -0.0956744 0 0 0 -1
-0.0378898 -0.0569782 0 0 0 -1
0.0395877 -0.0623163 0 0 0 -1
0.0692715 0.0344833 0 0 0 -1
0.0341289 -0.0918562 0 0 0 -1
0.0408628 0.0289639 0 0 0 -1
-0.0398235 -0.0678663 0 0 0 -1
0.0964221 -0.0606441 0 0 0 -1
0.0437802 -0.00626953 0 0 0 -1
-0.0188857 -0.0505868 0 0 0 -1
0.0685922 0.0557817 0 0 0 -1
0.100042 -0.0813901 0 0 0 -1
0.0233563 -0.0115096 0 0 0 -1
0.102967 0.0683766 0 0 0 -1
-0.0482148 -0.0867877 0 0 0 -1
0.0158708 -0.0564811 0 0 0 -1
-0.0537832 -0.0551327 0 0 0 -1
0.0477685 0.0144456 0 0 0 -1
0.0117149 -0.029621 0 0 0 -1
0.0402464 -0.0331989 0 0 0 -1
-0.0213497 -0.0616373 0 0 0 -1
0.026607 -0.0618777 0 0 0 -1
0.0738354 0.00596632 0 0 0 -1
0.0636409 -0.0946525 0 0 0 -1
0.0527712 0.0309087 0 0 0 -1
0.0926309 0.0179503 0 0 0 -1
0.0471285 -0.0700828 0 0 0 -1
0.0825301 -0.0164962 0 0 0 -1
-0.0293749 -0.0508045 0 0 0 -1
0.0943569 -0.0922873 0 0 0 -1
-0.0658927 -0.0832877 0 0 0 -1
-0.0882027 -0.0837514 0 0 0 -1
0.022799 -0.0381112 0 0 0 -1
0.106283 -0.0912757 0 0 0 -1
-0.0516828 -0.069665 0 0 0 -1
0.0564752 -0.0307395 0 0 0 -1
0.0409394 -0.0504905 0 0 0 -1
-0.00623922 -0.0242004 0 0 0 -1
0.0227182 -0.0929567 0 0 0 -1
0.00288751 -0.0676088 0 0 0 -1
0.0972592 0.0398279 0 0 0 -1
0.0797894 0.0331944 0 0 0 -1
0.0307292 0.00217377 0 0 0 -1
0.0135377 -0.0129554 0 0 0 -1
0.0130258 -0.0428989 0 0 0 -1
0.0509834 -0.0158057 0 0 0 -1
0.0852284 -0.0424672 0 0 0 -1
0.0190607 -0.00019205 0 0 0 -1
0.0198314 -0.0221168 0 0 0 -1
0.057075 0.0422529 0 0 0 -1
0.0828505 -0.0325199 0 0 0 -1
0.104056 0.0221458 0 0 0 -1
0.0648998 -0.0383488 0 0 0 -1
0.0519236 -0.0431001 0 0 0 -1
-0.0397925 -0.0452066 0 0 0 -1
0.0701853 -0.0847586 0 0 0 -1
-0.0250587 -0.0414982 0 0 0 -1
0.072289 -0.0645493 0 0 0 -1
0.0981091 -0.00543516 0 0 0 -1
0.078475 0.0669559 0 0 0 -1
0.104715 0.0546607 0 0 0 -1
0.105711 -0.0160727 0 0 0 -1
0.0171878 -0.0693779 0 0 0 -1
-0.0770206 -0.088393 0 0 0 -1
-0.0170315 -0.0274887 0 0 0 -1
0.0828318 0.0162661 0 0 0 -1
-0.00369374 -0.0105323 0 0 0 -1
0.0960494 -0.0460539 0 0 0 -1
0.066951 0.014028 0 0 0 -1
0.0558992 -0.0593431 0 0 0 -1
0.0911324 0.0729106 0 0 0 -1
0.027927 -0.077646 0 0 0 -1
-0.00238688 -0.0438719 0 0 0 -1
0.062948 -0.00695352 0 0 0 -1
0.00647233 -0.00320786 0 0 0 -1
0.0671418 -0.0543224 0 0 0 -1
0.0452821 0.0383925 0 0 0 -1
0.0781761 -0.00532986 0 0 0 -1
0.0858222 0.00236002 0 0 0 -1
0.0544443 0.00368504 0 0 0 -1
0.00199004 -0.0882435 0 0 0 -1
0.086851 0.0446044 0 0 0 -1
-0.0117888 -0.0699512 0 0 0 -1
0.0306873 0.0214996 0 0 0 -1
0.0917229 -0.0757035 0 0 0 -1
-0.0154903 -0.0962418 0 0 0 -1
-0.0131374 -0.0838445 0 0 0 -1
-0.00432553 -0.0581111 0 0 0 -1
-0.0633121 -0.070032 0 0 0 -1
0.10609 0.0329289 0 0 0 -1
0.1047 -0.0308498 0 0 0 -1
-0.041103 -0.0786558 0 0 0 -1
-0.025248 -0.0877617 0 0 0 -1
0.0724532 -0.0225623 0 0 0 -1
-0.0408669 -0.0963835 0 0 0 -1
0.0745414 0.0447397 0 0 0 -1
0.0922847 -0.0144261 0 0 0 -1
0.0717545 -0.1008 0 0 0 -1
-0.0260702 -0.0998432 0 0 0 -1
0.0867319 -0.0995198 0 0 0 -1
0.0472406 -0.103422 0 0 0 -1
-0.00521325 -0.0987124 0 0 0 -1
0.10174 0.103945 0 0 0 -1
0.105495 -0.100864 0.00828117 0.896879 -0.442275 0
0.0979918 -0.106386 0.00455372 0.152138 -0.988359 0
-0.103396 -0.103739 0.0129549 -0.691527 -0.722351 0
-0.0994059 -0.106067 0.0233126 -0.279824 -0.960051 0
-0.0977724 -0.106418 0.00454851 -0.108864 -0.994057 0
0.104284 0.102774 0.0229888 0.779878 0.625931 0
0.0768997 0.00300164 0.0238 -0 0 1
0.0894026 -0.103441 0.0238 0 0 1
0.104064 -0.00934482 0.0238 0 0 1
0.105116 -0.0262997 0.0238 0 0 1
0.0833221 0.0127709 0.0238 0 0 1
0.0942896 0.0206704 0.0238 0 0 1
0.0971984 -0.0542443 0.0238 0 0 1
0.0949864 -0.000972791 0.0238 0 0 1
0.0891876 -0.0226759 0.0238 0 0 1
0.10518 0.067522 0.0238 0 0 1
0.102189 0.0126118 0.0238 0 0 1
0.095319 0.0384552 0.0238 0 0 1
0.0901615 -0.0325064 0.0238 0 0 1
0.104 0.0514946 0.0238 0 0 1
0.105606 -0.0831326 0.0238 0 0 1
0.0881427 -0.0112198 0.0238 0 0 1
0.105599 -0.0699644 0.0238 0 0 1
0.0781206 -0.00676533 0.0238 0 0 1
0.0441187 -0.0764955 0.0238 0 0 1
0.0743973 -0.0952456 0.0238 0 0 1
0.0797421 -0.0298193 0.0238 0 0 1
0.0974953 -0.0770071 0.0238 0 0 1
0.0784835 -0.0504089 0.0238 0 0 1
0.0590099 -0.091927 0.0238 0 0 1
0.0288174 -0.0816803 0.0238 0 0 1
-0.0673293 -0.0951853 0.0238 0 0 1
0.0838369 -0.0627616 0.0238 0 0 1
0.0537527 -0.0779688 0.0238 0 0 1
0.00457328 -0.0776092 0.0238 0 0 1
0.0502308 -0.0974165 0.0238 0 0 1
-0.0497826 -0.0937083 0.0238 0 0 1
-0.00803672 -0.0947836 0.0238 0 0 1
-0.018146 -0.095951 0.0238 0 0 1
0.0139416 -0.0871325 0.0238 0 0 1
-0.0113216 -0.0822876 0.0238 0 0 1
0.021289 -0.0969489 0.0238 0 0 1
0.00119436 -0.0904998 0.0238 0 0 1
-0.035518 -0.0940664 0.0238 0 0 1
0.0587493 -0.10626 0.0238 0 0 1
-0.0219553 -0.106158 0.0238 0 0 1
0.0326141 -0.0928612 0.0238 0 0 1
-0.051517 -0.10626 0.0238 0 0 1
-0.0260916 -0.0830979 0.0238 0 0 1
-0.0416202 0.0731161 0.0238 0 -0 1
0.0742604 -0.0678105 0.0238 0 0 1
0.0572152 -0.065923 0.0238 0 0 1
0.0723226 -0.0803638 0.0238 0 0 1
0.064117 -0.0743057 0.0238 0 0 1
-0.0528139 -0.0827105 0.0238 0 0 1
-0.0449336 -0.0729178 0.0238 0 0 1
-0.0842856 -0.0978752 0.0238 0 0 1
-0.0683319 -0.0847111 0.0238 0 0 1
-0.089792 0.0474448 0.0238 0 0 1
-0.0778584 0.0394667 0.0238 0 -0 1
0.0563888 0.0916921 0.0238 -0 0 1
0.0895776 0.0486087 0.0238 -0 0 1
-0.0397856 -0.0839137 0.0238 0 0 1
-0.0806709 0.0272036 0.0238 0 -0 1
-0.0798238 0.0506616 0.0238 0 0 1
-0.0452496 0.0825192 0.0238 0 0 1
0.0421488 0.0779472 0.0238 0 0 1
0.080576 0.0975766 0.0238 -0 0 1
0.0328328 0.0695573 0.0238 0 0 1
0.0564479 0.0813979 0.0238 0 0 1
0.0435683 0.0647312 0.0238 0 0 1
0.0737455 0.0354567 0.0238 -0 0 1
0.0884311 0.0586189 0.0238 0 0 1
0.0823763 0.0403028 0.0238 0 0 1
0.0976032 0.0754078 0.0238 -0 0 1
-0.0787989 -0.0171509 0.0238 0 0 1
-0.0636175 0.0804897 0.0238 0 -0 1
-0.079847 0.094981 0.0238 0 -0 1
0.0702339 0.0631304 0.0238 -0 0 1
0.0607391 0.0473407 0.0238 -0 0 1
-0.0656823 -0.059439 0.0238 0 0 1
-0.0644331 -0.047221 0.0238 0 0 1
-0.102349 0.0367008 0.0238 0 0 1
-0.0884389 -0.0279016 0.0238 0 0 1
-0.0972327 -0.0553729 0.0238 0 0 1
-0.0961517 -0.0185201 0.0238 0 0 1
-0.0944077 -0.0387621 0.0238 0 0 1
-0.0974057 0.023167 0.0238 0 0 1
-0.096953 0.00656243 0.0238 0 0 1
-0.0902955 0.0313223 0.0238 0 0 1
-0.104636 0.0568782 0.0238 0 0 1
-0.100245 -0.00804322 0.0238 0 0 1
-0.0863667 -0.00772353 0.0238 0 0 1
-0.0864898 0.0144668 0.0238 0 0 1
-0.106158 -0.0620711 0.0238 0 0 1
-0.0943751 0.0576389 0.0238 0 -0 1
-0.0886641 0.0743784 0.0238 0 0 1
-0.0734701 0.0583154 0.0238 0 -0 1
-0.0600813 0.0497576 0.0238 0 0 1
-0.0583212 0.0919279 0.0238 0 0 1
-0.0149365 0.0774574 0.0238 0 -0 1
0.00915903 0.0991211 0.0238 0 0 1
0.0490883 0.104265 0.0238 0 0 1
0.0190484 0.102917 0.0238 0 0 1
0.0228272 0.0934608 0.0238 0 0 1
-0.0401136 0.0948189 0.0238 0 0 1
-0.0687201 0.105416 0.0238 0 0 1
-0.0115491 0.0900483 0.0238 0 0 1
-0.0498611 0.0976356 0.0238 0 0 1
-0.0297559 0.0893142 0.0238 0 0 1
0.0461695 0.0937127 0.0238 0 0 1
0.0330355 0.0956928 0.0238 0 0 1
-0.0272848 0.101812 0.0238 0 0 1
0.00329456 0.0843849 0.0238 0 0 1
0.034726 0.0859371 0.0238 -0 0 1
0.0654886 0.0760114 0.0238 -0 0 1
0.0762477 0.0836014 0.0238 0 0 1
0.0848066 0.0717283 0.0238 -0 0 1
0.103144 0.0923116 0.0238 -0 0 1
0.0717517 0.0510728 0.0238 -0 0 1
0.0886593 -0.085749 0.0238 0 -0 1
0.0556831 -0.055885 0.0238 0 0 1
-0.0790373 -0.0629992 0.0238 0 0 1
-0.0739825 -0.0504258 0.0238 0 0 1
-0.0760751 -0.0283212 0.0238 0 0 1
-0.0850619 -0.04671 0.0238 0 0 1
-0.0960705 -0.0747626 0.0238 0 0 1
-0.0523343 0.0691976 0.0238 0 -0 1
-0.0881238 -0.0667059 0.0238 0 0 1
-0.061702 0.0596917 0.0238 0 0 1
-0.07529 0.0801195 0.0238 0 0 1
0.0667221 -0.0611264 0.0238 -0 0 1
0.0993175 -0.103058 0.0238 0 -0 1
-0.0622994 -0.0761214 0.0238 0 0 1
-0.0553262 -0.0659149 0.0238 0 0 1
-0.0782553 -0.0875695 0.0238 0 -0 1
-0.0680757 0.0687797 0.0238 0 0 1
-0.102206 0.103118 0.0238 0 0 1
-0.0910718 -0.0870284 0.0238 -0 0 1
-0.0891596 0.0859466 0.0238 0 0 1
-0.0709908 -0.0705158 0.0238 -0 0 1
-0.0976369 0.0922175 0.0238 0 0 1
0.0929784 0.0888411 0.0238 0 0 1
-0.0841683 -0.0778481 0.0238 0 0 1
-0.106367 -0.0978377 0.0238 0 0 1
0.0120391 -0.0149634 0.33 0 -0 1
-0.00227671 -0.0222103 0.33 0 0 1
-0.00290804 -0.00744097 0.33 0 0 1
-0.0137102 0.00987962 0.33 0 0 1
-0.00306893 0.0059306 0.33 0 0 1
-0.00728054 0.0201799 0.33 0 0 1
0.0124755 0.0183688 0.33 0 0 1
0.011236 0.00662032 0.33 0 0 1
0.1065 0.0274065 0.0144209 1 0 0
0.1065 0.00597256 0.0180254 1 0 0
0.1065 0.0808165 0.0069993 1 0 0
0.1065 -0.0465636 0.0195775 1 0 0
0.1065 0.0922258 0.0111566 1 0 0
0.1065 0.0661369 0.0121825 1 0 0
0.1065 -0.0129169 0.0137011 1 0 0
0.1065 0.0767136 0.0188418 1 0 0
0.1065 0.00346141 0.00490435 1 0 0
0.1065 -0.0957853 0.0202642 1 0 0
0.1065 -0.055353 0.0112847 1 0 0
0.1065 -0.0760169 0.0132809 1 0 0
0.1065 -0.0729675 0.00212155 1 0 0
0.1065 -0.0251154 0.0138715 1 0 0
0.1065 0.0424911 0.00620817 1 0 0
0.1065 -0.0413924 0.00968879 1 0 0
0.1065 -0.0871486 0.00891993 1 0 0
-0.101475 0.105174 0.0135841 -0.481001 0.87672 -0
-0.100013 0.105861 0.000494346 -0.362435 0.932009 0
-0.030444 0.00109575 0.285053 -0.984421 0.0214792 0.174511
-0.0516331 0.00137198 0.165491 -0.984421 0.0214792 0.174511
-0.062685 0.00251944 0.103005 -0.984421 0.0214792 0.174511
-0.0446438 0.00222892 0.204743 -0.982547 0.0643988 0.174511
-0.0561211 0.00399819 0.13947 -0.982547 0.0643994 0.174511
-0.0285736 0.00331855 0.29462 -0.978803 0.107196 0.174511
-0.035108 0.00455619 0.257209 -0.978803 0.107196 0.174511
-0.0666233 0.00727995 0.0787725 -0.978803 0.107196 0.174511
-0.070971 0.00683908 0.0546578 -0.978803 0.107196 0.174511
-0.0750402 0.00897982 0.0305192 -0.978803 0.107197 0.174511
-0.0367232 0.00588301 0.247079 -0.973195 0.14979 0.174511
-0.0482409 0.00709038 0.181812 -0.973195 0.14979 0.174511
-0.0523165 0.00830223 0.158044 -0.973195 0.149789 0.174511
-0.068365 0.0114509 0.0658435 -0.973195 0.149788 0.174511
-0.0722484 0.0103539 0.0451283 -0.973195 0.149789 0.174511
-0.0604499 0.00850116 0.112515 -0.973195 0.14979 0.174511
-0.0418967 0.00826747 0.215968 -0.965735 0.192096 0.174511
-0.06387 0.0142958 0.0877006 -0.956437 0.234039 0.174511
-0.0493905 0.0119418 0.170215 -0.956437 0.234039 0.174511
-0.0538234 0.0128147 0.144749 -0.956437 0.234039 0.174511
-0.0312644 0.00880905 0.273656 -0.945318 0.275535 0.174511
-0.0573889 0.0172637 0.118792 -0.945318 0.275535 0.174511
-0.0551677 0.0172434 0.130857 -0.945318 0.275535 0.174511
-0.0431702 0.0145321 0.199911 -0.9324 0.316507 0.174511
-0.0684862 0.0230714 0.049162 -0.9324 0.316507 0.174511
-0.0660613 0.0234836 0.0613709 -0.9324 0.316507 0.174511
-0.0598075 0.0192447 0.102472 -0.9324 0.316507 0.174511
-0.0378968 0.0139273 0.229153 -0.917706 0.356877 0.174511
-0.0699945 0.0264648 0.0347202 -0.917706 0.356877 0.174511
-0.0484096 0.0202692 0.16085 -0.901266 0.396567 0.174511
-0.0443635 0.0194224 0.18367 -0.901266 0.396567 0.174511
-0.0621005 0.026197 0.0766723 -0.901266 0.396567 0.174511
-0.0546824 0.0263279 0.114501 -0.883111 0.435501 0.174511
-0.0493933 0.0239566 0.147184 -0.883111 0.435501 0.174511
-0.0581327 0.029915 0.0880885 -0.883111 0.435502 0.174511
-0.0629505 0.0325742 0.0570722 -0.883111 0.435502 0.174511
-0.0690376 0.0334792 0.0240102 -0.883111 0.435501 0.174511
-0.0302548 0.0162095 0.263267 -0.863274 0.473607 0.174511
-0.0368307 0.0204537 0.219219 -0.863274 0.473607 0.174511
-0.0609645 0.0322797 0.0677383 -0.863274 0.473607 0.174511
-0.0549698 0.030065 0.103404 -0.863274 0.473607 0.174511
-0.0637637 0.0372273 0.0403757 -0.841793 0.510813 0.174511
-0.0222265 0.0151713 0.305091 -0.81871 0.547046 0.174511
-0.0304271 0.0204968 0.249924 -0.81871 0.547046 0.174511
-0.0560986 0.0360907 0.0806045 -0.81871 0.547046 0.174511
-0.0414605 0.027474 0.176289 -0.81871 0.547046 0.174511
-0.0491421 0.0346291 0.117778 -0.79407 0.582236 0.174511
-0.0355307 0.0253956 0.21052 -0.79407 0.582236 0.174511
-0.05457 0.0411452 0.0713389 -0.79407 0.582236 0.174511
-0.0560961 0.0426828 0.0592652 -0.79407 0.582236 0.174511
-0.0465777 0.0347033 0.129199 -0.79407 0.582236 0.174511
-0.0592442 0.0418605 0.0476838 -0.79407 0.582236 0.174511
-0.0229018 0.0178463 0.293118 -0.767918 0.616318 0.174511
-0.0306259 0.024938 0.234084 -0.767918 0.616318 0.174511
-0.0581491 0.0465338 0.036701 -0.767918 0.616319 0.174511
-0.0400699 0.0321874 0.166924 -0.767918 0.616318 0.174511
-0.0353664 0.0302946 0.194189 -0.740303 0.649228 0.174511
-0.018487 0.0163684 0.317603 -0.740303 0.649228 0.174511
-0.0401282 0.0372966 0.147844 -0.71128 0.680902 0.174511
-0.0461123 0.0450754 0.0931027 -0.71128 0.680902 0.174511
-0.0423847 0.0420985 0.119911 -0.71128 0.680902 0.174511
-0.0519785 0.0494678 0.0520549 -0.71128 0.680902 0.174511
-0.0251041 0.0247904 0.257876 -0.71128 0.680902 0.174511
-0.0218074 0.0218928 0.282604 -0.680902 0.71128 0.174511
-0.0462491 0.0491913 0.0759734 -0.680902 0.71128 0.174511
-0.04799 0.0509551 0.0619918 -0.680902 0.71128 0.174511
-0.0285037 0.030245 0.222434 -0.680902 0.71128 0.174511
-0.0432101 0.0440114 0.108943 -0.680902 0.71128 0.174511
-0.0491428 0.0547112 0.0420051 -0.649228 0.740303 0.174511
-0.0497871 0.0583163 0.0243146 -0.649228 0.740303 0.174511
-0.0237173 0.0286686 0.247008 -0.616318 0.767918 0.174511
-0.0326859 0.0394817 0.167752 -0.616318 0.767918 0.174511
-0.0273468 0.0351556 0.205644 -0.616318 0.767918 0.174511
-0.0337912 0.0438653 0.144558 -0.616319 0.767918 0.174511
-0.0305957 0.0375446 0.183658 -0.616318 0.767918 0.174511
-0.0404517 0.055208 0.0707502 -0.582236 0.79407 0.174511
-0.034405 0.0459473 0.133063 -0.582236 0.79407 0.174511
-0.0377096 0.053474 0.0877887 -0.582236 0.79407 0.174511
-0.0411193 0.059473 0.0490101 -0.547046 0.81871 0.174511
-0.0331985 0.0507303 0.114855 -0.547046 0.81871 0.174511
-0.0264819 0.0422942 0.175392 -0.510813 0.841793 0.174511
-0.0220143 0.0368994 0.214492 -0.510813 0.841793 0.174511
-0.0164206 0.0281472 0.273084 -0.510813 0.841793 0.174511
-0.0244408 0.039494 0.194874 -0.510813 0.841793 0.174511
-0.0326537 0.0546138 0.0978999 -0.510813 0.841794 0.174511
-0.018948 0.0339773 0.23742 -0.473607 0.863274 0.174511
-0.0373715 0.0655317 0.0313269 -0.473607 0.863274 0.174511
-0.0262341 0.0465869 0.155269 -0.473607 0.863274 0.174511
-0.0343252 0.0605569 0.0642034 -0.473607 0.863274 0.174511
-0.0276967 0.0554785 0.107056 -0.435501 0.883111 0.174511
-0.0180805 0.0365902 0.226638 -0.435501 0.883111 0.174511
-0.0301096 0.0605206 0.075519 -0.435501 0.883111 0.174511
-0.0241316 0.0533851 0.126377 -0.396567 0.901266 0.174511
-0.0195335 0.0441634 0.184451 -0.396567 0.901266 0.174511
-0.0285596 0.0650958 0.0558341 -0.396567 0.901266 0.174511
-0.00870805 0.0229783 0.318278 -0.356877 0.917706 0.174511
-0.0281389 0.0712847 0.0245114 -0.356877 0.917706 0.174511
-0.0253112 0.0644928 0.0660111 -0.356877 0.917706 0.174511
-0.0271053 0.0691305 0.0379539 -0.356877 0.917706 0.174511
-0.0178696 0.0472465 0.171923 -0.356877 0.917706 0.174511
-0.0125602 0.0349157 0.247591 -0.316507 0.9324 0.174511
-0.0196409 0.0574061 0.114584 -0.316507 0.9324 0.174511
-0.0185813 0.05368 0.136414 -0.316507 0.9324 0.174511
-0.00844571 0.0258806 0.303327 -0.316507 0.9324 0.174511
-0.0195984 0.0727604 0.0318397 -0.275535 0.945318 0.174511
-0.0181884 0.0603422 0.101335 -0.275535 0.945318 0.174511
-0.0160966 0.0653264 0.0773034 -0.234039 0.956437 0.174511
-0.0166369 0.0689278 0.0568406 -0.234039 0.956437 0.174511
-0.0122442 0.0537684 0.145816 -0.234039 0.956437 0.174511
-0.016416 0.0629553 0.0898702 -0.234039 0.956437 0.174511
-0.00585157 0.0330182 0.267761 -0.192096 0.965735 0.174511
-0.00840784 0.0446425 0.200618 -0.192096 0.965735 0.174511
-0.00613431 0.0380268 0.239594 -0.14979 0.973195 0.174511
-0.00480957 0.0290836 0.290604 -0.14979 0.973195 0.174511
-0.00764015 0.0503388 0.169641 -0.149789 0.973195 0.174511
-0.00857466 0.0591245 0.119844 -0.149789 0.973195 0.174511
-0.00647127 0.0416407 0.219151 -0.14979 0.973195 0.174511
-0.00811772 0.0624693 0.101557 -0.107196 0.978803 0.174511
-0.00689335 0.0524555 0.158475 -0.107196 0.978803 0.174511
-0.0073669 0.0723425 0.046641 -0.107197 0.978803 0.174511
-0.00796597 0.0743778 0.0348574 -0.107197 0.978803 0.174511
-0.00438984 0.0486211 0.181519 -0.107196 0.978803 0.174511
-0.00833178 0.0682132 0.0692089 -0.107196 0.978803 0.174511
-0.00353015 0.0764011 0.02546 -0.0644003 0.982547 0.174511
-0.00343985 0.0708421 0.0567921 -0.0644001 0.982547 0.174511
-0.000724976 0.0312912 0.280319 -0.0214818 0.984421 0.174511
-0.00112544 0.0359819 0.25381 -0.0214818 0.984421 0.174511
-0.000674559 0.047191 0.190634 -0.0214812 0.984421 0.174511
-9.05391e-05 0.0551849 0.145612 -0.0214803 0.984421 0.174511
-0.000222325 0.0399799 0.231368 -0.0214812 0.984421 0.174511
-0.000510749 0.0440154 0.208568 -0.0214812 0.984421 0.174511
-0.000164426 0.0256792 0.312046 -0.0214818 0.984421 0.174511
0.00211025 0.0516421 0.165349 0.0214805 0.984421 0.174511
0.00358628 0.0660593 0.083667 0.064399 0.982547 0.174511
0.00346579 0.0746188 0.035519 0.0643989 0.982547 0.174511
0.00419754 0.0613283 0.110078 0.0643994 0.982547 0.174511
0.0042506 0.0420687 0.218356 0.107196 0.978803 0.174511
0.0063768 0.0640944 0.0935113 0.107196 0.978803 0.174511
0.00642153 0.0566915 0.135005 0.107196 0.978803 0.174511
0.00392339 0.0326303 0.271495 0.107196 0.978803 0.174511
0.00709072 0.0527864 0.156463 0.14979 0.973195 0.174511
0.0110381 0.06901 0.0626007 0.149789 0.973195 0.174511
0.0114618 0.0664436 0.0765492 0.149788 0.973196 0.174511
0.0105604 0.0713635 0.0498859 0.149789 0.973195 0.174511
0.0086108 0.0581905 0.125021 0.149789 0.973195 0.174511
0.00540206 0.0289806 0.290599 0.192096 0.965735 0.174511
0.01414 0.0728641 0.0381316 0.192096 0.965735 0.174511
0.00861657 0.0452967 0.196768 0.192096 0.965735 0.174511
0.0109992 0.0543598 0.143991 0.192096 0.965735 0.174511
0.0135317 0.0617719 0.100185 0.192097 0.965735 0.174511
0.00642007 0.0264738 0.303219 0.234039 0.956437 0.174511
0.014462 0.058525 0.116772 0.234039 0.956437 0.174511
0.0192014 0.0737197 0.0271383 0.234038 0.956437 0.174511
0.0123389 0.0467002 0.184427 0.234039 0.956437 0.174511
0.0107634 0.0395205 0.225848 0.275535 0.945318 0.174511
0.0199671 0.0676821 0.0587661 0.275535 0.945318 0.174511
0.0190619 0.0625818 0.0878232 0.275535 0.945318 0.174511
0.0139488 0.0497847 0.165218 0.275535 0.945318 0.174511
0.0175411 0.0548557 0.132019 0.316507 0.9324 0.174511
0.0207956 0.0581762 0.108375 0.316507 0.9324 0.174511
0.0112955 0.0323005 0.263857 0.316507 0.9324 0.174511
0.021389 0.0640678 0.0758204 0.316507 0.9324 0.174511
0.0160588 0.0420302 0.203057 0.356877 0.917706 0.174511
0.0246849 0.0538469 0.122735 0.396567 0.901266 0.174511
0.015612 0.034226 0.244684 0.396567 0.901266 0.174511
0.025082 0.0588789 0.0958439 0.396567 0.901266 0.174511
0.0227791 0.0509553 0.141999 0.396567 0.901266 0.174511
0.0298466 0.067443 0.0407871 0.396567 0.901266 0.174511
0.0224369 0.0479356 0.158353 0.435501 0.883111 0.174511
0.0185324 0.0379892 0.218431 0.435501 0.883111 0.174511
0.0302307 0.0633004 0.0611497 0.435501 0.883111 0.174511
0.0182307 0.0352111 0.233242 0.435501 0.883111 0.174511
0.034103 0.0635473 0.0500138 0.473607 0.863274 0.174511
0.0328132 0.057343 0.0842058 0.473608 0.863274 0.174511
0.0328084 0.0601935 0.0701174 0.473607 0.863274 0.174511
0.0239094 0.037209 0.207409 0.547046 0.81871 0.174511
0.017003 0.0263663 0.279927 0.547046 0.81871 0.174511
0.0279626 0.0409558 0.177125 0.547046 0.81871 0.174511
0.0338095 0.0487659 0.122156 0.547046 0.81871 0.174511
0.0439479 0.0586909 0.0432369 0.582236 0.79407 0.174511
0.0385029 0.0508611 0.0970312 0.582236 0.79407 0.174511
0.0317342 0.0437352 0.152039 0.582236 0.79407 0.174511
0.0406009 0.0517581 0.085777 0.616318 0.767918 0.174511
0.0439992 0.0524746 0.0706227 0.616319 0.767917 0.174511
0.0294008 0.036633 0.191889 0.616318 0.767918 0.174511
0.0472835 0.0582293 0.0337005 0.616319 0.767917 0.174511
0.0190205 0.0220851 0.292473 0.649228 0.740303 0.174511
0.0265553 0.0309115 0.226999 0.649228 0.740303 0.174511
0.0466992 0.0529819 0.0584316 0.649228 0.740303 0.174511
0.0343313 0.0384848 0.165942 0.649228 0.740303 0.174511
0.0418336 0.0460362 0.105998 0.649228 0.740303 0.174511
0.0255803 0.0287606 0.239751 0.649228 0.740303 0.174511
0.0387757 0.0418302 0.135136 0.680902 0.71128 0.174511
0.0386676 0.0393778 0.145553 0.680902 0.71128 0.174511
0.0516237 0.0517638 0.0445183 0.680902 0.71128 0.174511
0.0387746 0.0363323 0.157124 0.71128 0.680902 0.174511
0.0549073 0.0515862 0.0318519 0.71128 0.680902 0.174511
0.0442462 0.0407335 0.11765 0.71128 0.680902 0.174511
0.0257559 0.023697 0.259486 0.71128 0.680902 0.174511
0.0340765 0.0307325 0.198032 0.740303 0.649228 0.174511
0.0538107 0.0451852 0.0605485 0.740303 0.649228 0.174511
0.0503218 0.0423702 0.0858213 0.740303 0.649228 0.174511
0.044647 0.0376585 0.127424 0.740303 0.649228 0.174511
0.0205879 0.0168426 0.306845 0.767918 0.616318 0.174511
0.0255312 0.0200006 0.27394 0.767918 0.616318 0.174511
0.03551 0.0258109 0.209228 0.79407 0.582236 0.174511
0.0336743 0.0245011 0.221951 0.79407 0.582236 0.174511
0.0463771 0.0326382 0.137002 0.79407 0.582236 0.174511
0.0500424 0.0372867 0.104814 0.79407 0.582236 0.174511
0.0562563 0.036563 0.0783839 0.81871 0.547046 0.174511
0.059252 0.0403736 0.0523843 0.81871 0.547046 0.174511
0.042137 0.0282376 0.170722 0.81871 0.547046 0.174511
0.0405564 0.0269502 0.182173 0.81871 0.547046 0.174511
0.0405072 0.0234516 0.192882 0.841793 0.510813 0.174511
0.0506985 0.0306061 0.12278 0.841793 0.510813 0.174511
0.0645592 0.0381682 0.0337847 0.841794 0.510813 0.174511
0.0602448 0.0348532 0.0642995 0.841794 0.510813 0.174511
0.0209075 0.0119681 0.321017 0.863274 0.473607 0.174511
0.0468257 0.0260237 0.154659 0.863274 0.473607 0.174511
0.0565817 0.0316605 0.0910996 0.863274 0.473607 0.174511
0.033235 0.0168818 0.246609 0.883111 0.435501 0.174511
0.0646104 0.0311659 0.0521867 0.883111 0.435501 0.174511
0.0549149 0.0268208 0.112094 0.883111 0.435501 0.174511
0.051542 0.022035 0.14066 0.901266 0.396567 0.174511
0.0362679 0.0152322 0.235002 0.901266 0.396567 0.174511
0.041173 0.0167117 0.20623 0.917706 0.356877 0.174511
0.0260273 0.0104264 0.29873 0.917706 0.356877 0.174511
0.061788 0.0240327 0.0828496 0.917706 0.356877 0.174511
0.0682351 0.0266798 0.0435323 0.917706 0.356877 0.174511
0.0462958 0.0179956 0.176665 0.917706 0.356877 0.174511
0.0540771 0.0218354 0.127893 0.917706 0.356877 0.174511
0.0697033 0.0286622 0.0317575 0.917706 0.356877 0.174511
0.0325051 0.0114293 0.262522 0.9324 0.316507 0.174511
0.0568369 0.0190218 0.118748 0.9324 0.316507 0.174511
0.0656601 0.0227473 0.0648495 0.9324 0.316507 0.174511
0.0404827 0.0133089 0.216489 0.9324 0.316507 0.174511
0.0499252 0.0171955 0.158989 0.9324 0.316507 0.174511
0.061118 0.0167014 0.0994801 0.945318 0.275535 0.174511
0.0305286 0.00795328 0.27894 0.956437 0.234039 0.174511
0.0533634 0.0128867 0.147173 0.956437 0.234039 0.174511
0.0711265 0.0159353 0.0457311 0.956437 0.234038 0.174511
0.0554774 0.0126633 0.135887 0.956437 0.234039 0.174511
0.0633615 0.0151498 0.0893417 0.956437 0.234039 0.174511
0.0604116 0.0116083 0.10983 0.965735 0.192097 0.174511
0.0368432 0.00679136 0.245559 0.965735 0.192096 0.174511
0.0405521 0.00555288 0.22601 0.973195 0.149789 0.174511
0.0746471 0.0127054 0.0297332 0.973195 0.14979 0.174511
0.0494456 0.00641412 0.175651 0.978803 0.107196 0.174511
0.0476856 0.00621064 0.185648 0.978803 0.107196 0.174511
0.0527982 0.00653369 0.156773 0.978803 0.107196 0.174511
0.0675838 0.00793839 0.0729808 0.978803 0.107196 0.174511
0.0724436 0.00421022 0.047491 0.982547 0.0643998 0.174511
0.0555192 0.00262033 0.143367 0.982547 0.0643997 0.174511
0.0589448 0.00240857 0.124117 0.984421 0.0214818 0.174511
0.0699631 0.00300488 0.0618895 0.984421 0.0214818 0.174511
0.0515193 0.0010346 0.166174 0.984421 0.0214812 0.174511
0.0653255 0.000837624 0.0883171 0.984421 0.0214804 0.174511
0.0748752 0.00247139 0.034246 0.984421 0.0214812 0.174511
0.0231873 -0.000961753 0.326005 0.984421 -0.0214818 0.174511
0.0261504 -0.000610242 0.309333 0.984421 -0.0214818 0.174511
0.0387373 -0.000863074 0.238299 0.984421 -0.0214817 0.174511
0.0464866 -0.00181766 0.194467 0.984421 -0.0214808 0.174511
0.035967 -0.00227158 0.25358 0.982547 -0.0643988 0.174511
0.0420853 -0.00237083 0.219096 0.982547 -0.0643988 0.174511
0.0305695 -0.00142079 0.284284 0.982547 -0.0643988 0.174511
0.0678212 -0.00409832 0.0735577 0.982547 -0.0643993 0.174511
0.0608235 -0.0035575 0.113156 0.982547 -0.0643991 0.174511
0.0713611 -0.00475304 0.0533858 0.982547 -0.0643995 0.174511
0.0570345 -0.00532821 0.133753 0.978803 -0.107196 0.174511
0.0655561 -0.00846118 0.0840326 0.978803 -0.107197 0.174511
0.0323939 -0.00400145 0.272773 0.978803 -0.107196 0.174511
0.0731099 -0.00805918 0.0419115 0.978803 -0.107196 0.174511
0.0680729 -0.0116411 0.0673092 0.973196 -0.149788 0.174511
0.048379 -0.0100418 0.178142 0.965735 -0.192096 0.174511
0.0741247 -0.0143717 0.0309009 0.965735 -0.192097 0.174511
0.0507161 -0.0106359 0.164555 0.965735 -0.192096 0.174511
0.0533675 -0.0109379 0.14955 0.965735 -0.192096 0.174511
0.0697808 -0.0150703 0.0541705 0.965735 -0.192097 0.174511
0.0389604 -0.0101044 0.229843 0.956437 -0.234039 0.174511
0.0597382 -0.0145253 0.110038 0.956437 -0.234039 0.174511
0.043033 -0.0115206 0.205623 0.956437 -0.234039 0.174511
0.0613322 -0.0189523 0.0947655 0.945318 -0.275535 0.174511
0.0540613 -0.0165683 0.137916 0.945318 -0.275535 0.174511
0.0235964 -0.00775071 0.316792 0.9324 -0.316507 0.174511
0.0558931 -0.0190719 0.1237 0.9324 -0.316507 0.174511
0.0709446 -0.0230664 0.0360361 0.9324 -0.316507 0.174511
0.032922 -0.0125555 0.258119 0.917706 -0.356877 0.174511
0.0664762 -0.0248884 0.0564456 0.917706 -0.356877 0.174511
0.035644 -0.0148859 0.239012 0.901266 -0.396567 0.174511
0.0252125 -0.0109818 0.301757 0.901266 -0.396567 0.174511
0.0463834 -0.0204444 0.170916 0.901266 -0.396567 0.174511
0.0624 -0.0282208 0.0705264 0.901266 -0.396567 0.174511
0.0393303 -0.018017 0.212858 0.901266 -0.396567 0.174511
0.0694651 -0.031185 0.0273029 0.901266 -0.396567 0.174511
0.0265716 -0.0129775 0.290072 0.883111 -0.435501 0.174511
0.0666327 -0.0310942 0.0421319 0.883111 -0.435501 0.174511
0.0471692 -0.0233348 0.159991 0.883111 -0.435501 0.174511
0.0601078 -0.0286743 0.08119 0.883111 -0.435501 0.174511
0.0413286 -0.0208447 0.195761 0.883111 -0.435501 0.174511
0.0545541 -0.0273335 0.112641 0.883111 -0.435501 0.174511
0.0560933 -0.0283612 0.102287 0.883111 -0.435501 0.174511
0.0493903 -0.0264994 0.140681 0.863274 -0.473607 0.174511
0.028539 -0.0171006 0.269204 0.841793 -0.510813 0.174511
0.0633782 -0.0389276 0.0372587 0.841794 -0.510813 0.174511
0.064819 -0.040618 0.0253602 0.841794 -0.510813 0.174511
0.060319 -0.0355388 0.0619346 0.841793 -0.510813 0.174511
0.0260795 -0.0170095 0.281252 0.81871 -0.547046 0.174511
0.0488418 -0.0314606 0.129163 0.81871 -0.547046 0.174511
0.0532811 -0.0371723 0.0904321 0.81871 -0.547046 0.174511
0.0450315 -0.0304124 0.150325 0.81871 -0.547046 0.174511
0.0316669 -0.0241136 0.232378 0.79407 -0.582236 0.174511
0.0412016 -0.0314421 0.164542 0.79407 -0.582236 0.174511
0.0282377 -0.0217519 0.255845 0.767918 -0.616318 0.174511
0.034145 -0.0263026 0.213779 0.767918 -0.616318 0.174511
0.0572724 -0.0453675 0.0446778 0.767918 -0.616318 0.174511
0.0527137 -0.0431909 0.0724251 0.767918 -0.616319 0.174511
0.0422405 -0.038372 0.134978 0.740303 -0.649228 0.174511
0.0343066 -0.0309602 0.196209 0.740303 -0.649228 0.174511
0.0466179 -0.0404816 0.10856 0.740303 -0.649228 0.174511
0.0533653 -0.047231 0.0548269 0.740303 -0.649228 0.174511
0.0365983 -0.0334018 0.177404 0.740303 -0.649228 0.174511
0.0275684 -0.0255269 0.244958 0.71128 -0.680902 0.174511
0.0539957 -0.0516836 0.0351874 0.71128 -0.680902 0.174511
0.0288782 -0.0296977 0.223204 0.680902 -0.71128 0.174511
0.0356749 -0.0387624 0.159739 0.680902 -0.71128 0.174511
0.0449229 -0.0482609 0.0849406 0.680902 -0.71128 0.174511
0.0389173 -0.0450597 0.12099 0.649228 -0.740303 0.174511
0.0409035 -0.0472326 0.104383 0.649228 -0.740303 0.174511
0.0208514 -0.0259578 0.269058 0.616318 -0.767918 0.174511
0.0302443 -0.0374771 0.185196 0.616318 -0.767918 0.174511
0.0437364 -0.0552241 0.0594521 0.616319 -0.767918 0.174511
0.0434206 -0.0523823 0.0730723 0.616318 -0.767918 0.174511
0.0172287 -0.0239456 0.290483 0.582236 -0.79407 0.174511
0.0436865 -0.0605977 0.0354326 0.582236 -0.79407 0.174511
0.042795 -0.059001 0.0456727 0.582236 -0.79407 0.174511
0.0144274 -0.0204023 0.315952 0.582236 -0.79407 0.174511
0.0369499 -0.0529037 0.0928994 0.547046 -0.81871 0.174511
0.0331702 -0.0517568 0.110129 0.547046 -0.81871 0.174511
0.0303858 -0.047849 0.13717 0.510813 -0.841793 0.174511
0.0402494 -0.0650866 0.0251486 0.510813 -0.841793 0.174511
0.0237583 -0.0391366 0.198596 0.510813 -0.841793 0.174511
0.034436 -0.0573358 0.0795528 0.510813 -0.841794 0.174511
0.0278501 -0.0467542 0.149873 0.510813 -0.841793 0.174511
0.0242542 -0.0428485 0.179135 0.473607 -0.863274 0.174511
0.0169696 -0.0307703 0.258654 0.473607 -0.863274 0.174511
0.0192428 -0.0355158 0.22901 0.473607 -0.863274 0.174511
0.0334655 -0.0608982 0.0648484 0.473607 -0.863274 0.174511
0.0278075 -0.052548 0.121511 0.473607 -0.863274 0.174511
0.0252409 -0.0461322 0.160214 0.473607 -0.863274 0.174511
0.016441 -0.032998 0.248908 0.435501 -0.883111 0.174511
0.0175357 -0.0384582 0.218456 0.396567 -0.901266 0.174511
0.0231724 -0.0528781 0.131175 0.396567 -0.901266 0.174511
0.0249461 -0.0594081 0.0934198 0.396567 -0.901266 0.174511
0.0304039 -0.0703439 0.0245389 0.396567 -0.901266 0.174511
0.0127979 -0.0295578 0.275189 0.396567 -0.901266 0.174511
0.0302498 -0.065647 0.0491468 0.396567 -0.901266 0.174511
0.0171829 -0.0410753 0.205741 0.396567 -0.901266 0.174511
0.0101022 -0.0253567 0.30292 0.356877 -0.917706 0.174511
0.0242746 -0.0634607 0.0735585 0.356877 -0.917706 0.174511
0.0247317 -0.0695585 0.0404217 0.316507 -0.9324 0.174511
0.0125718 -0.0366395 0.238359 0.316507 -0.9324 0.174511
0.0199616 -0.0683452 0.055183 0.275535 -0.945318 0.174511
0.0166235 -0.056763 0.123194 0.275535 -0.945318 0.174511
0.013776 -0.0509901 0.158961 0.275535 -0.945318 0.174511
0.00768146 -0.0281937 0.292071 0.275535 -0.945318 0.174511
0.011735 -0.0466499 0.185512 0.234039 -0.956437 0.174511
0.0177333 -0.0732709 0.0315672 0.234038 -0.956437 0.174511
0.0150007 -0.0612879 0.100907 0.234039 -0.956437 0.174511
0.0106531 -0.0496236 0.170582 0.192096 -0.965735 0.174511
0.0141961 -0.0651389 0.0808208 0.192096 -0.965735 0.174511
0.0123345 -0.0681067 0.0664463 0.192097 -0.965735 0.174511
0.00573752 -0.0340516 0.262103 0.14979 -0.973195 0.174511
0.00398394 -0.0239481 0.319952 0.14979 -0.973195 0.174511
0.00748514 -0.0447854 0.200744 0.14979 -0.973195 0.174511
0.00834377 -0.0598153 0.116189 0.149788 -0.973195 0.174511
0.0074466 -0.0536497 0.151343 0.149789 -0.973195 0.174511
0.00338667 -0.0314817 0.278267 0.107196 -0.978803 0.174511
0.00498081 -0.0425765 0.215059 0.107196 -0.978803 0.174511
0.00647801 -0.0645474 0.090908 0.107197 -0.978803 0.174511
0.00934278 -0.0735895 0.0384329 0.107196 -0.978803 0.174511
0.00639823 -0.0570849 0.132813 0.107196 -0.978803 0.174511
0.00256868 -0.0620733 0.10645 0.0214818 -0.984421 0.174511
0.00119022 -0.0708178 0.0572915 0.0214804 -0.984421 0.174511
0.00128935 -0.0667855 0.0800254 0.0214807 -0.984421 0.174511
-0.00199201 -0.0689629 0.0676567 -0.0214804 -0.984421 0.174511
-0.000847199 -0.0500099 0.174712 -0.0214815 -0.984421 0.174511
-0.000454315 -0.0726234 0.0471967 -0.0214815 -0.984421 0.174511
-0.00189378 -0.0554012 0.14417 -0.0214807 -0.984421 0.174511
-0.00196607 -0.0360076 0.253464 -0.0643988 -0.982547 0.174511
-0.00304676 -0.0533393 0.155483 -0.0643989 -0.982547 0.174511
-0.00276195 -0.0469838 0.191372 -0.0643989 -0.982547 0.174511
-0.00366108 -0.0387294 0.237448 -0.107196 -0.978803 0.174511
-0.008863 -0.0667829 0.0768872 -0.14979 -0.973195 0.174511
-0.00856695 -0.0508439 0.166029 -0.149789 -0.973195 0.174511
-0.00725882 -0.0436253 0.207408 -0.149789 -0.973195 0.174511
-0.0125063 -0.0712512 0.0488419 -0.149788 -0.973196 0.174511
-0.00910215 -0.0595549 0.11699 -0.149789 -0.973195 0.174511
-0.0114263 -0.0740633 0.0340864 -0.149789 -0.973195 0.174511
-0.00976675 -0.0618879 0.10341 -0.149789 -0.973195 0.174511
-0.00586066 -0.0318168 0.274399 -0.192096 -0.965735 0.174511
-0.00553942 -0.027636 0.297889 -0.192096 -0.965735 0.174511
-0.011596 -0.0641417 0.0892015 -0.192096 -0.965735 0.174511
-0.010133 -0.0482889 0.178541 -0.192096 -0.965735 0.174511
-0.0143314 -0.0675925 0.0670938 -0.192097 -0.965735 0.174511
-0.00743699 -0.0292995 0.286368 -0.234039 -0.956437 0.174511
-0.00849587 -0.0334211 0.262359 -0.234039 -0.956437 0.174511
-0.0146319 -0.0548314 0.136788 -0.234038 -0.956437 0.174511
-0.0196701 -0.0739407 0.0252987 -0.234038 -0.956437 0.174511
-0.0200753 -0.0642117 0.0773943 -0.275535 -0.945318 0.174511
-0.0154892 -0.0519403 0.151109 -0.275535 -0.945318 0.174511
-0.0116412 -0.0396425 0.223801 -0.275535 -0.945318 0.174511
-0.0157707 -0.0565328 0.125787 -0.275535 -0.945318 0.174511
-0.0187526 -0.0590598 0.107359 -0.316507 -0.9324 0.174511
-0.0220549 -0.0675968 0.0557576 -0.316507 -0.9324 0.174511
-0.00894194 -0.0222564 0.321596 -0.356877 -0.917706 0.174511
-0.01623 -0.0435277 0.194832 -0.356877 -0.917706 0.174511
-0.0261782 -0.0689995 0.0405385 -0.356877 -0.917706 0.174511
-0.0238792 -0.0648954 0.0668224 -0.356877 -0.917706 0.174511
-0.0171747 -0.0409752 0.206277 -0.396567 -0.901266 0.174511
-0.0213202 -0.0466434 0.167583 -0.396567 -0.901266 0.174511
-0.0271548 -0.0599591 0.0855553 -0.396567 -0.901266 0.174511
-0.0297055 -0.0609091 0.0745618 -0.435501 -0.883111 0.174511
-0.0241864 -0.0471488 0.157969 -0.435501 -0.883111 0.174511
-0.0248482 -0.0506389 0.138655 -0.435501 -0.883111 0.174511
-0.0229389 -0.043924 0.177385 -0.473607 -0.863274 0.174511
-0.0354896 -0.0622143 0.0528447 -0.473608 -0.863274 0.174511
-0.0155099 -0.0275637 0.278478 -0.473607 -0.863274 0.174511
-0.0172855 -0.0311732 0.255804 -0.473607 -0.863274 0.174511
-0.0298482 -0.0524908 0.116255 -0.473608 -0.863274 0.174511
-0.021144 -0.0353714 0.224411 -0.510813 -0.841793 0.174511
-0.0332503 -0.0531457 0.103235 -0.510813 -0.841794 0.174511
-0.0295168 -0.0461669 0.147806 -0.547046 -0.81871 0.174511
-0.0155662 -0.022855 0.300904 -0.547046 -0.81871 0.174511
-0.0401465 -0.0624511 0.038088 -0.547046 -0.81871 0.174511
-0.0388902 -0.0577115 0.0642614 -0.547046 -0.81871 0.174511
-0.0356634 -0.0542946 0.090407 -0.547046 -0.81871 0.174511
-0.0211917 -0.0313268 0.243524 -0.547046 -0.81871 0.174511
-0.0369718 -0.0557371 0.0795378 -0.547046 -0.81871 0.174511
-0.0252473 -0.0356329 0.21055 -0.582236 -0.79407 0.174511
-0.0450479 -0.0618728 0.0250888 -0.582236 -0.79407 0.174511
-0.033627 -0.0468669 0.131474 -0.582236 -0.79407 0.174511
-0.0309345 -0.0371703 0.184108 -0.616319 -0.767918 0.174511
-0.0480507 -0.0575788 0.0338535 -0.616319 -0.767917 0.174511
-0.0219273 -0.0257331 0.266184 -0.649228 -0.740303 0.174511
-0.0400457 -0.0437503 0.122346 -0.649228 -0.740303 0.174511
-0.027113 -0.0293736 0.231412 -0.680902 -0.71128 0.174511
-0.0314056 -0.0340344 0.195667 -0.680902 -0.71128 0.174511
-0.0471614 -0.0510578 0.0648062 -0.680902 -0.71128 0.174511
-0.0375126 -0.0376859 0.156956 -0.680902 -0.71128 0.174511
-0.0476259 -0.0482548 0.0744188 -0.680902 -0.71128 0.174511
-0.0426345 -0.0437336 0.112321 -0.680902 -0.71128 0.174511
-0.0378592 -0.0403639 0.144688 -0.680902 -0.71128 0.174511
-0.0518597 -0.0518443 0.0432661 -0.71128 -0.680902 0.174511
-0.0187668 -0.0183094 0.308993 -0.71128 -0.680902 0.174511
-0.02133 -0.0199693 0.29207 -0.71128 -0.680902 0.174511
-0.0410572 -0.0401597 0.132887 -0.71128 -0.680902 0.174511
-0.0463881 -0.0442935 0.0950293 -0.71128 -0.680902 0.174511
-0.0262948 -0.0242663 0.255068 -0.71128 -0.680902 0.174511
-0.0172967 -0.0147479 0.328681 -0.740303 -0.649228 0.174511
-0.0332776 -0.0296972 0.205273 -0.740303 -0.649228 0.174511
-0.056008 -0.0510559 0.0293867 -0.740303 -0.649228 0.174511
-0.0378398 -0.0323084 0.176204 -0.740303 -0.649228 0.174511
-0.0495451 -0.0380744 0.104438 -0.767917 -0.616319 0.174511
-0.024624 -0.0192047 0.280743 -0.767918 -0.616318 0.174511
-0.0406331 -0.0320745 0.164844 -0.767918 -0.616319 0.174511
-0.0488687 -0.0359168 0.114726 -0.79407 -0.582236 0.174511
-0.0580316 -0.0432956 0.0484134 -0.79407 -0.582236 0.174511
-0.0534464 -0.0371396 0.0897588 -0.81871 -0.547046 0.174511
-0.0350159 -0.0229404 0.220736 -0.81871 -0.547046 0.174511
-0.0569865 -0.0389761 0.067394 -0.81871 -0.547046 0.174511
-0.0613571 -0.0427277 0.035129 -0.81871 -0.547046 0.174511
-0.0502909 -0.0305002 0.125056 -0.841793 -0.510813 0.174511
-0.0468086 -0.0283925 0.148023 -0.841793 -0.510813 0.174511
-0.0282706 -0.0166706 0.271757 -0.841793 -0.510813 0.174511
-0.040379 -0.0244084 0.1907 -0.841793 -0.510813 0.174511
-0.0570525 -0.0350847 0.0790202 -0.841793 -0.510813 0.174511
-0.0673731 -0.0356507 0.0268877 -0.863274 -0.473608 0.174511
-0.0332323 -0.0173097 0.245552 -0.863274 -0.473607 0.174511
-0.055308 -0.0312093 0.0986254 -0.863274 -0.473607 0.174511
-0.043841 -0.0242631 0.174202 -0.863274 -0.473607 0.174511
-0.0349893 -0.0180072 0.234922 -0.883111 -0.435501 0.174511
-0.0660337 -0.0327595 0.0410071 -0.883111 -0.435501 0.174511
-0.0540708 -0.0271005 0.115667 -0.883111 -0.435501 0.174511
-0.0223293 -0.00983685 0.319249 -0.901266 -0.396567 0.174511
-0.0619293 -0.0263492 0.0772105 -0.901266 -0.396567 0.174511
-0.0640843 -0.0296555 0.0585675 -0.901266 -0.396567 0.174511
-0.0474569 -0.0208637 0.164419 -0.901266 -0.396567 0.174511
-0.0524285 -0.0201552 0.139998 -0.917706 -0.356877 0.174511
-0.059756 -0.0223381 0.0970008 -0.917706 -0.356877 0.174511
-0.0397998 -0.0139652 0.218947 -0.9324 -0.316507 0.174511
-0.0650058 -0.0232801 0.0673791 -0.9324 -0.316507 0.174511
-0.0511868 -0.0181934 0.150438 -0.9324 -0.316507 0.174511
-0.0456253 -0.0145191 0.186817 -0.9324 -0.316507 0.174511
-0.0433699 -0.0134798 0.200707 -0.945318 -0.275535 0.174511
-0.0285172 -0.00827156 0.289387 -0.945318 -0.275535 0.174511
-0.0593668 -0.017975 0.106955 -0.945318 -0.275535 0.174511
-0.0724653 -0.0209181 0.0313541 -0.945318 -0.275535 0.174511
-0.0655592 -0.014905 0.0776254 -0.956437 -0.234038 0.174511
-0.0717613 -0.0170464 0.0407618 -0.956437 -0.234038 0.174511
-0.0373677 -0.00761475 0.24175 -0.965735 -0.192096 0.174511
-0.0578605 -0.0108825 0.124747 -0.965735 -0.192097 0.174511
-0.0429009 -0.0078791 0.210838 -0.965735 -0.192096 0.174511
-0.0708713 -0.0130247 0.0503874 -0.965735 -0.192097 0.174511
-0.051201 -0.0102799 0.162264 -0.965735 -0.192096 0.174511
-0.034758 -0.00607863 0.257871 -0.973195 -0.14979 0.174511
-0.0404641 -0.00477132 0.227036 -0.978803 -0.107196 0.174511
-0.0682126 -0.008604 0.0690449 -0.978803 -0.107196 0.174511
-0.0634956 -0.00710254 0.0964242 -0.978803 -0.107196 0.174511
-0.0236419 -0.00117716 0.323378 -0.982547 -0.0643988 0.174511
-0.0658856 -0.00303551 0.0848481 -0.982547 -0.0644 0.174511
-0.0543508 -0.00403915 0.149422 -0.982547 -0.0643989 0.174511
-0.0461702 -0.00345959 0.195695 -0.982547 -0.0643988 0.174511
-0.0738001 -0.00461093 0.0397056 -0.982547 -0.0643997 0.174511
-0.0497107 -0.00344545 0.175766 -0.982547 -0.064399 0.174511
-0.0260527 -0.00102689 0.309833 -0.984421 -0.0214818 0.174511
-0.0767013 -0.00128319 0.0240909 -0.984421 -0.0214802 0.174511
-0.0703092 -0.00252597 0.0599964 -0.984421 -0.0214815 0.174511
-0.0592137 -6.71101e-05 0.122889 -0.984421 -0.0214801 0.174511
-0.0115605 0.1065 0.00860004 0 1 -0
0.0599815 0.1065 0.0128348 0 1 -0
0.0410882 0.1065 0.0120548 0 1 -0
-0.0719511 0.1065 0.00302422 0 1 -0
-0.00172989 0.1065 0.00580991 0 1 -0
0.0921998 0.1065 0.0221665 0 1 -0
0.0784639 0.1065 0.000248079 0 1 -0
0.0930474 0.1065 0.00743134 0 1 -0
0.0345958 0.1065 0.000159368 0 1 -0
0.0847741 0.1065 0.0135189 0 1 -0
0.028882 0.1065 0.00980546 0 1 -0
0.0491897 0.1065 5.7065e-05 0 1 -0
0.0687755 0.1065 0.00600534 0 1 -0
-0.019815 0.1065 0.0189394 0 1 -0
-0.00790663 0.1065 0.0209513 0 1 -0
0.0298859 0.1065 0.0215026 0 1 -0
-0.0478814 0.1065 0.0083796 0 1 -0
-0.091638 0.1065 0.00779919 0 1 -0
-0.0843505 0.1065 0.0179415 0 1 -0
0.0156066 0.1065 0.0147579 0 1 -0
0.00150318 0.1065 0.0169655 0 1 -0
-0.0356902 0.1065 0.00858816 0 1 -0
0.0676813 0.1065 0.0234632 0 1 -0
-0.0703035 0.1065 0.0130735 0 1 -0
-0.0416834 0.1065 0.0211216 0 1 -0
-0.0576257 0.1065 0.0145445 0 1 -0
-0.1065 0.067674 0.0185237 -1 0 0
-0.1065 0.057877 0.00156844 -1 0 0
-0.1065 0.0429411 0.000516104 -1 0 0
-0.1065 0.0582839 0.0125913 -1 0 0
-0.1065 0.0290602 0.0025895 -1 0 0
-0.1065 0.0846959 0.00875666 -1 0 0
-0.1065 -0.0327192 0.00428171 -1 0 0
-0.1065 0.0458602 0.0121705 -1 0 0
-0.1065 0.0344242 0.0122855 -1 0 0
-0.1065 -0.00235766 0.00306325 -1 0 0
-0.1065 0.00837578 0.0183586 -1 0 0
-0.1065 -0.042317 0.023225 -1 0 0
-0.1065 -0.011676 0.0164964 -1 0 0
-0.1065 -0.0613679 0.00622203 -1 0 0
-0.1065 -0.0871642 0.021269 -1 0 0
-0.1065 -0.0221244 0.010926 -1 0 0
-0.1065 0.0813062 0.0237651 -1 0 0
-0.1065 0.017963 0.0148751 -1 0 0
-0.1065 -0.044052 0.0110601 -1 0 0
-0.1065 0.0262243 0.0210282 -1 0 0
-0.1065 -0.0936009 0.00191717 -1 0 0
-0.1065 -0.0829516 0.0118017 -1 0 0
-0.1065 -0.00118164 0.0140252 -1 0 0
-0.1065 -0.0278273 0.0226005 -1 0 0
-0.1065 -0.0743318 0.0179217 -1 0 0
-0.1065 -0.0730541 0.00816631 -1 0 0
-0.0266841 -0.1065 0.0108406 0 -1 0
0.0117093 -0.1065 0.00866859 0 -1 0
-0.0882328 -0.1065 0.0164667 0 -1 0
0.0362562 -0.1065 0.000831055 0 -1 0
-0.0543123 -0.1065 0.00688752 0 -1 0
-0.0800344 -0.1065 0.00801022 0 -1 0
-0.0397431 -0.1065 0.00770821 0 -1 0
-0.0639136 -0.1065 0.0179354 0 -1 0
0.0568885 -0.1065 0.0018334 0 -1 0
-0.000855256 -0.1065 0.0230667 0 -1 0
-0.011205 -0.1065 0.021752 0 -1 0
0.0513712 -0.1065 0.0118148 0 -1 0
0.044811 -0.1065 0.0234978 0 -1 0
0.0789742 -0.1065 0.0226448 0 -1 0
0.0722867 -0.1065 0.0143534 0 -1 0
0.0896975 -0.1065 0.0108147 0 -1 0
-0.0320158 -0.1065 0.0209662 0 -1 0
-0.074436 -0.1065 0.0225116 0 -1 0
0.0292828 -0.1065 0.0103631 0 -1 0
-0.00464145 -0.1065 0.0137507 0 -1 0
0.03199 -0.1065 0.023379 0 -1 0
