ply
format ascii 1.0
comment Created by Open3D
element vertex 1000
property double x
property double y
property double z
property double nx
property double ny
property double nz
end_header
-0.0334164 -0.106456 0 0 0 -1
-0.0848075 -0.106239 0 0 0 -1
0.0655921 -0.10582 0 0 0 -1
-0.0521531 -0.0998552 0 0 0 -1
0.0503953 0.100914 0 -0 -0 -1
0.0655373 0.102849 0 -0 -0 -1
-0.0406683 0.106153 0 -0 -0 -1
0.0955441 0.10374 0 -0 -0 -1
0.00416135 0.104188 0 -0 -0 -1
-0.0521788 0.105978 0 -0 -0 -1
-0.086694 0.0967356 0 0 -0 -1
-0.0939799 0.104598 0 0 -0 -1
-0.0729966 0.101003 0 0 -0 -1
0.0379973 0.0982177 0 0 -0 -1
0.0874938 0.0968551 0 0 -0 -1
0.0255281 0.0977177 0 0 -0 -1
-0.0865311 -0.0388563 0 0 0 -1
-0.102177 0.057835 0 0 0 -1
0.0749731 0.0880151 0 0 0 -1
-0.0165865 0.0940508 0 0 0 -1
-0.0827678 0.0476743 0 0 0 -1
0.0205108 0.0726783 0 0 0 -1
-0.0238111 0.0210081 0 0 0 -1
-0.0604369 0.0836424 0 0 0 -1
-0.106251 0.0280777 0 0 0 -1
-0.0844504 0.0677192 0 0 0 -1
-0.00525351 0.0217184 0 0 0 -1
-0.000495064 0.00204268 0 0 0 -1
0.0183454 0.0483002 0 0 0 -1
-0.0120408 0.0379557 0 0 0 -1
-0.0447363 0.0694634 0 0 0 -1
-0.0771388 -0.00819723 0 0 0 -1
-0.0239219 0.062151 0 0 0 -1
-0.0272609 0.0922505 0 0 0 -1
-0.052118 -0.0433725 0 0 0 -1
-0.0296586 0.00180831 0 0 0 -1
-0.0600884 -0.0181728 0 0 0 -1
-0.091941 -0.0709618 0 0 0 -1
-0.0581997 0.0360897 0 0 0 -1
-0.0976273 -0.03074 0 0 0 -1
-0.0724007 0.0789047 0 0 0 -1
-0.0443913 -0.0259041 0 0 0 -1
0.0159985 0.0894055 0 0 0 -1
-0.0745638 0.00385404 0 0 0 -1
0.0302609 0.0654918 0 0 0 -1
-0.0390616 0.0334413 0 0 0 -1
-0.106107 0.00152648 0 0 0 -1
-0.0971642 0.00676378 0 0 0 -1
0.00604838 0.0112326 0 0 0 -1
-0.074731 0.0316709 0 0 0 -1
-0.0456635 0.0549025 0 0 0 -1
-0.0979884 0.0208608 0 0 0 -1
-0.0945678 -0.0542188 0 0 0 -1
-0.0806883 -0.0637722 0 0 0 -1
-0.0988842 -0.0156165 0 0 0 -1
0.0961624 0.091856 0 0 0 -1
-0.0424034 -0.0103862 0 0 0 -1
-0.0326597 -0.0181373 0 0 0 -1
-0.0936865 0.0520672 0 0 0 -1
-0.0885041 -0.00748908 0 0 0 -1
-0.0125246 0.00975222 0 0 0 -1
0.0589758 0.0915619 0 0 0 -1
-0.0904823 0.0412455 0 0 0 -1
-0.0999963 0.0361438 0 0 0 -1
-0.0306479 0.0529407 0 0 0 -1
0.0054031 0.0904011 0 0 0 -1
-0.0764409 -0.0442092 0 0 0 -1
-0.0257457 0.0785583 0 0 0 -1
-0.0441338 0.0419799 0 0 0 -1
-0.0970084 0.0860667 0 0 0 -1
-0.0359213 0.075721 0 0 0 -1
0.0422668 0.0811968 0 0 0 -1
-0.05121 0.00570043 0 0 0 -1
-0.0154852 0.0544631 0 0 0 -1
-0.0729298 0.0625485 0 0 0 -1
0.0589892 0.0688733 0 0 0 -1
-0.0785434 0.0894688 0 0 0 -1
-0.103278 -0.0485494 0 0 0 -1
-0.0916737 0.0755187 0 0 0 -1
-0.0694904 -0.0314313 0 0 0 -1
-0.00827769 0.088032 0 0 0 -1
-0.0871416 0.0247686 0 0 0 -1
0.0101227 0.0794073 0 0 0 -1
-0.0638412 0.00921257 0 0 0 -1
-0.00607538 0.0660705 0 0 0 -1
-0.0628829 0.0522921 0 0 0 -1
-0.0579456 -0.00392307 0 0 0 -1
0.0181287 0.0371192 0 0 0 -1
-0.0184721 -0.0145792 0 0 0 -1
-0.0622721 0.0245422 0 0 0 -1
0.0408474 0.0684911 0 0 0 -1
-0.0389933 0.0857458 0 0 0 -1
-0.0368959 0.0197164 0 0 0 -1
-0.0303376 0.0120273 0 0 0 -1
-0.0735695 0.0197525 0 0 0 -1
-0.0545213 -0.030288 0 0 0 -1
-0.00331615 0.048093 0 0 0 -1
0.0833714 0.0771728 0 0 0 -1
0.0298903 0.0868475 0 0 0 -1
0.0625038 0.0786885 0 0 0 -1
-0.049029 0.0919656 0 0 0 -1
0.0152057 0.016283 0 0 0 -1
-0.0475684 0.0181628 0 0 0 -1
0.0208697 0.0606292 0 0 0 -1
0.00402129 0.0710108 0 0 0 -1
-0.077307 -0.0233761 0 0 0 -1
0.00372715 0.0269832 0 0 0 -1
-0.0970072 -0.0860207 0 0 0 -1
-0.0491767 0.0803843 0 0 0 -1
-0.053292 0.0638208 0 0 0 -1
0.0256596 0.0301663 0 0 0 -1
0.0291855 0.0498135 0 0 0 -1
-0.0664884 0.0912206 0 0 0 -1
-0.0117576 9.70324e-05 0 0 0 -1
0.0474056 0.0506973 0 0 0 -1
-0.0248154 0.0312425 0 0 0 -1
0.0696562 0.0697926 0 0 0 -1
-0.0665171 -0.050354 0 0 0 -1
-0.0152597 0.0780342 0 0 0 -1
-0.0684948 0.0414353 0 0 0 -1
0.0141207 -0.0868357 0 0 0 -1
0.0619896 -0.0163986 0 0 0 -1
-0.0196169 -0.0670216 0 0 0 -1
0.0258711 -0.091629 0 0 0 -1
0.0566258 -0.0793539 0 0 0 -1
-0.0456116 -0.092369 0 0 0 -1
0.0900277 -0.0663246 0 0 0 -1
0.0539706 0.0109725 0 0 0 -1
-0.0167518 -0.0409823 0 0 0 -1
-0.0325104 -0.0553294 0 0 0 -1
-0.0736072 -0.0746925 0 0 0 -1
-0.0319347 -0.0731188 0 0 0 -1
0.0948736 -0.0402142 0 0 0 -1
0.0933502 -0.0291751 0 0 0 -1
-0.0419184 -0.0827366 0 0 0 -1
0.0335489 -0.0438493 0 0 0 -1
0.0269356 0.0140782 0 0 0 -1
0.0590794 -0.00219462 0 0 0 -1
0.024123 -0.0328288 0 0 0 -1
0.104561 -0.0482558 0 0 0 -1
-0.070741 -0.0839394 0 0 0 -1
0.0249034 -0.06896 0 0 0 -1
0.0424702 -0.0375293 0 0 0 -1
0.0576744 0.0261858 0 0 0 -1
0.0878829 0.0495101 0 0 0 -1
0.0962683 0.0249765 0 0 0 -1
-0.0633152 -0.0594411 0 0 0 -1
0.068353 0.0201756 0 0 0 -1
0.00715807 -0.00406707 0 0 0 -1
0.00317248 -0.0845528 0 0 0 -1
0.0658476 -0.0331826 0 0 0 -1
-0.0656554 -0.0947656 0 0 0 -1
-0.0054424 -0.00940685 0 0 0 -1
0.0810216 -0.0601394 0 0 0 -1
0.0737968 0.0420064 0 0 0 -1
0.0517509 -0.0679188 0 0 0 -1
0.0756374 -0.0245262 0 0 0 -1
0.0655224 -0.0460887 0 0 0 -1
0.000488323 -0.0485918 0 0 0 -1
0.0672218 -0.0806586 0 0 0 -1
0.0469329 -0.0288322 0 0 0 -1
0.0476498 -0.0837794 0 0 0 -1
0.091039 0.00878829 0 0 0 -1
-0.0527898 -0.0629538 0 0 0 -1
0.0472448 -0.0171027 0 0 0 -1
0.0891102 -0.0505666 0 0 0 -1
0.0403413 0.0190425 0 0 0 -1
0.0347852 -0.0730936 0 0 0 -1
0.105213 0.03646 0 0 0 -1
0.0361311 -0.0282294 0 0 0 -1
0.0182201 0.00562776 0 0 0 -1
0.0426838 0.0087152 0 0 0 -1
0.0388381 -0.01009 0 0 0 -1
-0.0864572 -0.0925337 0 0 0 -1
-0.0291295 -0.034676 0 0 0 -1
-0.00152149 -0.0692513 0 0 0 -1
0.00594788 -0.0576439 0 0 0 -1
0.0817752 0.035472 0 0 0 -1
0.10523 -0.0143431 0 0 0 -1
0.0664731 -0.0915838 0 0 0 -1
0.103671 0.0129208 0 0 0 -1
0.0803066 -0.0040842 0 0 0 -1
-0.0589829 -0.0793945 0 0 0 -1
0.00182474 -0.0351328 0 0 0 -1
0.0101753 -0.0766293 0 0 0 -1
0.0705008 0.0313394 0 0 0 -1
0.093476 -0.00297325 0 0 0 -1
-0.0308886 -0.0456915 0 0 0 -1
0.0379035 -0.0897655 0 0 0 -1
0.0138626 -0.0496954 0 0 0 -1
-0.0419077 -0.0712612 0 0 0 -1
0.0771409 -0.0733769 0 0 0 -1
0.0220298 -0.042363 0 0 0 -1
-0.00269766 -0.0940553 0 0 0 -1
-0.015455 -0.0781007 0 0 0 -1
0.0881491 -0.0767009 0 0 0 -1
0.0702369 -0.0571464 0 0 0 -1
0.0338394 -0.0548112 0 0 0 -1
0.0986567 0.0462975 0 0 0 -1
-0.00488921 -0.058695 0 0 0 -1
-0.043502 -0.0586093 0 0 0 -1
-0.0243753 -0.0935799 0 0 0 -1
-0.0247552 -0.0250111 0 0 0 -1
0.0280597 -0.0218097 0 0 0 -1
0.0406033 -0.0651997 0 0 0 -1
0.095523 0.0691225 0 0 0 -1
0.0495717 -0.000131914 0 0 0 -1
0.0700338 0.0518353 0 0 0 -1
0.0931579 0.0348306 0 0 0 -1
0.0115176 -0.0303257 0 0 0 -1
-0.0210904 -0.0505936 0 0 0 -1
0.0613539 -0.0697829 0 0 0 -1
0.00868587 -0.0191887 0 0 0 -1
0.0992611 -0.0744196 0 0 0 -1
-0.00202518 -0.0217761 0 0 0 -1
-0.0401003 -0.0387751 0 0 0 -1
0.0450073 0.0354952 0 0 0 -1
0.0589798 0.0521645 0 0 0 -1
-0.0321529 -0.0850994 0 0 0 -1
0.0944198 -0.0858829 0 0 0 -1
0.0235199 -0.00591033 0 0 0 -1
0.0959884 0.0560861 0 0 0 -1
0.102586 0.0801106 0 0 0 -1
0.0549406 -0.0484092 0 0 0 -1
0.0825322 -0.0334258 0 0 0 -1
0.0164589 -0.0591161 0 0 0 -1
0.0789158 0.00978089 0 0 0 -1
0.0763675 -0.0993146 0 0 0 -1
0.0521216 -0.0970047 0 0 0 -1
0.00878674 -0.0970389 0 0 0 -1
0.0296278 -0.100821 0 0 0 -1
0.0900267 -0.104012 0 0 0 -1
0.104675 -0.102259 0.0066428 0.806451 -0.591301 -0
0.0993701 -0.106077 0.0211721 0.279824 -0.960051 -0
-0.106496 -0.0966919 0.0104352 -0.999762 -0.0218071 -0
-0.103287 -0.103843 0.0174401 -0.691527 -0.722351 0
-0.102153 -0.104747 0.00140876 -0.555575 -0.831467 0
0.104221 0.102853 0.0215839 0.779878 0.625931 0
0.101696 0.105041 0.00868397 0.518761 0.854919 -0
0.0575207 -0.0907096 0.0238 0 0 1
0.0912907 0.0193227 0.0238 0 0 1
0.0930179 -0.0303086 0.0238 0 0 1
0.102793 0.00287842 0.0238 0 0 1
0.096624 0.0640601 0.0238 0 0 1
0.0907292 0.00565429 0.0238 0 0 1
0.0974487 -0.0443983 0.0238 0 0 1
0.101312 -0.00803257 0.0238 0 0 1
0.0929697 -0.0164228 0.0238 0 0 1
0.0975368 0.047399 0.0238 0 0 1
0.106202 0.0879187 0.0238 0 0 1
0.0893383 0.0306738 0.0238 0 0 1
0.100687 0.0239132 0.0238 0 0 1
0.106031 0.060355 0.0238 0 0 1
0.0829913 0.0120334 0.0238 0 0 1
0.087239 -0.00489037 0.0238 0 0 1
0.0998776 0.0356732 0.0238 0 0 1
0.0306748 -0.0722858 0.0238 0 0 1
0.067446 -0.0924983 0.0238 0 0 1
0.0790837 -0.0193722 0.0238 0 0 1
0.0987288 -0.0778316 0.0238 0 0 1
0.092079 -0.0604271 0.0238 0 0 1
0.0821844 -0.0460121 0.0238 0 0 1
0.0783183 -0.0916435 0.0238 0 0 1
0.070012 -0.0346357 0.0238 0 0 1
0.0905156 -0.0703577 0.0238 0 0 1
0.0333134 -0.0829782 0.0238 0 0 1
0.0224051 -0.0802445 0.0238 0 0 1
-0.0261366 -0.079999 0.0238 0 0 1
0.0482468 -0.0755406 0.0238 0 0 1
-0.00905555 -0.0881129 0.0238 0 0 1
-0.0646036 -0.102515 0.0238 0 0 1
-0.0536422 -0.0948265 0.0238 0 0 1
0.0159161 -0.0974186 0.0238 0 0 1
0.0489029 -0.0977238 0.0238 0 0 1
-0.0200714 -0.10612 0.0238 0 0 1
-0.000807191 -0.0796398 0.0238 0 0 1
-0.0323451 -0.105386 0.0238 0 0 1
0.0399309 -0.0931665 0.0238 0 0 1
0.0696268 -0.106465 0.0238 0 0 1
0.0840045 -0.106054 0.0238 0 0 1
0.0306308 -0.0993613 0.0238 0 0 1
-0.0105841 -0.0992019 0.0238 0 0 1
-0.0889623 -0.104406 0.0238 0 0 1
0.0106886 -0.0828044 0.0238 0 0 1
0.00567315 -0.0958758 0.0238 0 0 1
-0.0398537 -0.0882813 0.0238 0 0 1
-0.0809568 0.0967344 0.0238 0 -0 1
-0.0643593 0.0886348 0.0238 0 -0 1
-0.0442148 0.0764007 0.0238 0 -0 1
0.0777823 0.0482928 0.0238 -0 0 1
0.0635603 -0.0480829 0.0238 0 0 1
0.0684038 -0.0578882 0.0238 0 0 1
0.0781099 -0.0711687 0.0238 0 0 1
0.09963 -0.0902282 0.0238 0 0 1
0.0596994 -0.068607 0.0238 0 0 1
0.0677761 -0.0815187 0.0238 0 0 1
-0.0415339 -0.0773393 0.0238 0 0 1
-0.0699364 -0.0908724 0.0238 0 0 1
-0.0517361 -0.0778651 0.0238 0 0 1
-0.0405486 -0.065917 0.0238 0 0 1
-0.0870113 0.0382613 0.0238 0 0 1
-0.0808689 0.0491588 0.0238 0 0 1
-0.0955127 0.095944 0.0238 0 0 1
0.0347531 0.0846132 0.0238 -0 0 1
0.0723201 0.097357 0.0238 0 0 1
0.024572 0.0735823 0.0238 0 0 1
0.0863735 0.041359 0.0238 -0 0 1
-0.076909 0.0141339 0.0238 0 0 1
-0.0799399 0.0311845 0.0238 0 -0 1
0.0439821 0.0785909 0.0238 -0 0 1
0.06202 0.0852253 0.0238 0 0 1
0.0479801 0.0693039 0.0238 0 0 1
0.0781586 0.0356158 0.0238 0 0 1
0.097326 0.0757097 0.0238 0 0 1
0.0785268 0.0237111 0.0238 -0 0 1
-0.0441456 0.0655317 0.0238 0 -0 1
0.076736 0.0692722 0.0238 -0 0 1
-0.0636745 -0.0510208 0.0238 0 0 1
-0.0808517 -0.0684495 0.0238 0 0 1
-0.0955337 0.0130445 0.0238 0 0 1
-0.0922245 -0.0221421 0.0238 0 0 1
-0.106285 0.0741496 0.0238 0 0 1
-0.0951687 -0.0481771 0.0238 0 0 1
-0.104656 -0.0549027 0.0238 0 0 1
-0.104368 -0.0703796 0.0238 0 0 1
-0.10532 -0.00283244 0.0238 0 0 1
-0.090036 0.026671 0.0238 0 0 1
-0.103566 -0.0326002 0.0238 0 0 1
-0.0945804 -0.00864243 0.0238 0 0 1
-0.0955319 0.0607338 0.0238 0 0 1
-0.0840637 -0.0155805 0.0238 0 0 1
-0.0852595 -0.0043968 0.0238 0 0 1
-0.106221 -0.0447653 0.0238 0 0 1
-0.0971614 0.0500395 0.0238 0 0 1
-0.0972327 0.0395666 0.0238 0 0 1
-0.0865512 -0.0306889 0.0238 0 0 1
-0.0856033 0.0696403 0.0238 0 0 1
-0.0939463 0.0822749 0.0238 0 -0 1
-0.063193 0.0450558 0.0238 0 -0 1
-0.0470696 0.0877508 0.0238 0 0 1
-0.0352875 0.0852792 0.0238 0 0 1
-0.0237651 0.0828974 0.0238 0 0 1
-0.073412 0.105813 0.0238 0 0 1
0.0108346 0.0831876 0.0238 0 0 1
0.0441447 0.104688 0.0238 0 0 1
-0.0343295 0.0981254 0.0238 0 0 1
0.0574701 0.0972303 0.0238 0 0 1
0.0204759 0.104708 0.0238 0 0 1
-0.00991918 0.0906935 0.0238 0 0 1
0.0256733 0.0940473 0.0238 0 0 1
0.0941251 0.106272 0.0238 0 0 1
0.0419602 0.092556 0.0238 0 0 1
0.0113652 0.0971238 0.0238 0 0 1
-0.00272587 0.100267 0.0238 0 0 1
0.0339009 0.101439 0.0238 0 0 1
-0.000938616 0.0838739 0.0238 0 0 1
-0.061657 0.106006 0.0238 0 0 1
-0.0212857 0.0931747 0.0238 0 0 1
-0.0537172 0.0977398 0.0238 0 0 1
0.0658962 0.106349 0.0238 0 0 1
0.0220571 0.0830902 0.0238 -0 0 1
0.0582903 0.0745557 0.0238 0 0 1
0.0773927 0.0870174 0.0238 0 0 1
0.0707004 0.0787267 0.0238 0 0 1
0.069643 0.0560004 0.0238 -0 0 1
0.0871741 0.0716878 0.0238 -0 0 1
0.079599 0.059954 0.0238 0 0 1
0.0900339 -0.0976852 0.0238 0 0 1
-0.0748744 -0.0473039 0.0238 0 0 1
-0.0979406 -0.0831441 0.0238 0 0 1
-0.0943263 -0.0711321 0.0238 0 0 1
-0.0757479 -0.030579 0.0238 0 0 1
-0.0850068 -0.0426355 0.0238 0 0 1
-0.0916981 -0.0599786 0.0238 0 0 1
-0.0753784 0.0845428 0.0238 0 -0 1
-0.063772 0.075265 0.0238 0 -0 1
-0.082766 -0.0539551 0.0238 0 0 1
-0.0999286 0.105807 0.0238 0 0 1
-0.0629851 0.0638155 0.0238 0 0 1
0.0893595 0.0950769 0.0238 0 0 1
0.0607968 0.0633241 0.0238 0 0 1
0.0875941 -0.0827897 0.0238 0 0 1
-0.0517233 -0.0678118 0.0238 0 0 1
-0.0646968 -0.0735976 0.0238 0 -0 1
-0.0817018 -0.0857474 0.0238 -0 0 1
-0.0658946 -0.0610062 0.0238 0 0 1
-0.10216 -0.0957698 0.0238 -0 0 1
0.012892 -0.00238788 0.33 0 -0 1
0.0030947 -0.0173974 0.33 0 -0 1
-0.000620282 -0.000689717 0.33 0 0 1
-0.0162306 -0.014571 0.33 0 0 1
-0.0102985 0.00653224 0.33 0 0 1
-6.57634e-05 0.0125288 0.33 0 0 1
0.0106441 0.0104089 0.33 0 0 1
0.1065 -0.0399646 0.0195567 1 0 0
0.1065 0.0883052 0.00657472 1 0 0
0.1065 0.0675523 0.0103376 1 0 0
0.1065 0.0153587 0.010255 1 0 0
0.1065 0.0385874 0.0104747 1 0 0
0.1065 0.0118952 0.0209315 1 0 0
0.1065 0.0764652 0.0185977 1 0 0
0.1065 0.0549927 0.0129109 1 0 0
0.1065 -0.0605337 0.0209883 1 0 0
0.1065 -0.0173937 0.0143588 1 0 0
0.1065 -0.00486097 0.0141325 1 0 0
0.1065 0.0271658 0.00917203 1 0 0
0.1065 -0.0304899 0.0219378 1 0 0
0.1065 -0.0685687 0.012252 1 0 0
0.1065 -0.0946257 0.0169765 1 0 0
0.1065 -0.0824776 0.0177042 1 0 0
0.1065 -0.0262489 0.00808042 1 0 0
0.1065 -0.0814272 0.000116495 1 0 0
0.1065 0.0709238 0.000589367 1 0 0
0.1065 -0.0888924 0.00863982 1 0 0
0.1065 -0.0527151 0.0085809 1 0 0
0.1065 -0.0413054 0.00863808 1 0 0
0.1065 0.00369944 0.00551007 1 0 0
0.1065 -0.094646 0.000116296 1 0 0
0.1065 -0.0605664 0.000290093 1 0 0
-0.104889 0.10194 0.00471633 -0.831467 0.555575 -0
-0.0548799 0.0014561 0.147165 -0.984421 0.0214792 0.174511
-0.0422812 0.0023828 0.217988 -0.982547 0.0643988 0.174511
-0.073591 0.00404704 0.0410913 -0.982547 0.0643992 0.174511
-0.0689698 0.0079205 0.0652179 -0.978803 0.107197 0.174511
-0.0458836 0.00465845 0.196708 -0.978803 0.107196 0.174511
-0.0747248 0.00882794 0.0323813 -0.978803 0.107197 0.174511
-0.0670389 0.00801056 0.0759925 -0.978803 0.107197 0.174511
-0.0589284 0.00678641 0.122235 -0.978803 0.107196 0.174511
-0.0650367 0.00802418 0.0872143 -0.978803 0.107197 0.174511
-0.0485057 0.00525328 0.181636 -0.978803 0.107196 0.174511
-0.0224375 0.0030708 0.32916 -0.973195 0.14979 0.174511
-0.0306621 0.00527051 0.281406 -0.973195 0.14979 0.174511
-0.0509436 0.0078271 0.166108 -0.973195 0.149789 0.174511
-0.0398052 0.00838786 0.22741 -0.965735 0.192096 0.174511
-0.0520767 0.0112328 0.156369 -0.965735 0.192097 0.174511
-0.0715996 0.0131568 0.0462117 -0.965735 0.192096 0.174511
-0.0285228 0.00673229 0.29157 -0.956437 0.234039 0.174511
-0.0616806 0.0153824 0.0982424 -0.956437 0.234039 0.174511
-0.0686885 0.0178232 0.056561 -0.956437 0.234038 0.174511
-0.0594369 0.0142014 0.112123 -0.956437 0.234039 0.174511
-0.0720152 0.0190746 0.0366504 -0.956437 0.234038 0.174511
-0.0528489 0.0153723 0.146371 -0.945318 0.275535 0.174511
-0.0260842 0.0086692 0.301834 -0.9324 0.316507 0.174511
-0.0428446 0.0137027 0.203155 -0.9324 0.316507 0.174511
-0.0539537 0.0190983 0.134014 -0.9324 0.316507 0.174511
-0.0657669 0.0215356 0.0664766 -0.9324 0.316507 0.174511
-0.0473438 0.0171814 0.172807 -0.9324 0.316507 0.174511
-0.0324723 0.0123331 0.260939 -0.917706 0.356877 0.174511
-0.0399973 0.0157381 0.214404 -0.917706 0.356877 0.174511
-0.0439271 0.016644 0.191885 -0.917706 0.356877 0.174511
-0.0550978 0.0223828 0.121406 -0.917706 0.356877 0.174511
-0.0616385 0.0261924 0.0790689 -0.901266 0.396567 0.174511
-0.0598209 0.0254401 0.0901654 -0.901266 0.396567 0.174511
-0.048844 0.0251469 0.146993 -0.883111 0.435501 0.174511
-0.0332456 0.0164433 0.247649 -0.883111 0.435501 0.174511
-0.0466949 0.0235617 0.161824 -0.883111 0.435501 0.174511
-0.0665443 0.0315738 0.0413826 -0.883111 0.435501 0.174511
-0.0210798 0.01165 0.321028 -0.863274 0.473607 0.174511
-0.0602553 0.0341455 0.0661833 -0.863274 0.473608 0.174511
-0.0271964 0.0152031 0.281128 -0.863274 0.473607 0.174511
-0.0627478 0.0350471 0.0514064 -0.863274 0.473608 0.174511
-0.067582 0.035206 0.0270613 -0.863274 0.473607 0.174511
-0.0418955 0.0253915 0.180507 -0.841793 0.510813 0.174511
-0.0538041 0.0341616 0.0973923 -0.841794 0.510813 0.174511
-0.0392873 0.0253976 0.192994 -0.81871 0.547046 0.174511
-0.0508075 0.0351972 0.108228 -0.81871 0.547046 0.174511
-0.0346573 0.0245648 0.217266 -0.79407 0.582236 0.174511
-0.0475323 0.0332884 0.129576 -0.79407 0.582236 0.174511
-0.0320974 0.0243492 0.229634 -0.79407 0.582236 0.174511
-0.0588821 0.0444861 0.0405717 -0.79407 0.582236 0.174511
-0.0527888 0.0388077 0.0872432 -0.79407 0.582236 0.174511
-0.0204127 0.0168316 0.307655 -0.767918 0.616318 0.174511
-0.0381282 0.032538 0.174127 -0.740303 0.649228 0.174511
-0.0255255 0.0218425 0.26738 -0.740303 0.649228 0.174511
-0.0412828 0.0367979 0.144897 -0.740303 0.649228 0.174511
-0.0452254 0.0388939 0.120374 -0.740303 0.649228 0.174511
-0.0330619 0.0309192 0.201529 -0.71128 0.680902 0.174511
-0.0215252 0.019897 0.291556 -0.71128 0.680902 0.174511
-0.0499436 0.0464084 0.0722858 -0.71128 0.680902 0.174511
-0.0493641 0.0519919 0.0524045 -0.680902 0.71128 0.174511
-0.0503767 0.0540424 0.0400964 -0.680902 0.71128 0.174511
-0.0429995 0.0447994 0.106554 -0.680902 0.71128 0.174511
-0.0329716 0.0355695 0.183299 -0.680902 0.71128 0.174511
-0.0521502 0.0563336 0.0238379 -0.680902 0.71128 0.174511
-0.0355379 0.038839 0.159951 -0.649228 0.740303 0.174511
-0.0367688 0.0432677 0.136585 -0.649228 0.740303 0.174511
-0.0252983 0.0297311 0.236682 -0.649228 0.740303 0.174511
-0.0237935 0.0276071 0.251291 -0.649228 0.740303 0.174511
-0.0273982 0.0315283 0.221246 -0.649228 0.740303 0.174511
-0.0143692 0.0175088 0.32913 -0.616318 0.767918 0.174511
-0.0385923 0.0462929 0.11692 -0.616318 0.767918 0.174511
-0.0155882 0.0193709 0.316631 -0.616318 0.767918 0.174511
-0.0424795 0.0552906 0.063598 -0.616319 0.767917 0.174511
-0.0390136 0.0503381 0.0976314 -0.616319 0.767917 0.174511
-0.0409696 0.0512962 0.0865072 -0.616319 0.767918 0.174511
-0.0411855 0.0539362 0.0740888 -0.582236 0.79407 0.174511
-0.0424194 0.0590841 0.0465475 -0.582236 0.79407 0.174511
-0.0271205 0.0419705 0.175005 -0.547046 0.81871 0.174511
-0.0257999 0.03825 0.196599 -0.547046 0.81871 0.174511
-0.0303897 0.0521098 0.116606 -0.510813 0.841794 0.174511
-0.0288792 0.0471617 0.144895 -0.510813 0.841793 0.174511
-0.0270763 0.0463048 0.154306 -0.510813 0.841794 0.174511
-0.0304368 0.0498975 0.127139 -0.510813 0.841793 0.174511
-0.0158103 0.0281187 0.274917 -0.473607 0.863274 0.174511
-0.0230972 0.0419986 0.18648 -0.473607 0.863274 0.174511
-0.0320849 0.0572706 0.08654 -0.473607 0.863274 0.174511
-0.0349785 0.0656381 0.0372946 -0.473608 0.863274 0.174511
-0.0339051 0.0605193 0.06553 -0.473607 0.863274 0.174511
-0.0281484 0.0559598 0.103493 -0.435501 0.883111 0.174511
-0.0332639 0.0645264 0.047376 -0.435501 0.883111 0.174511
-0.0180533 0.0380824 0.219155 -0.435501 0.883111 0.174511
-0.016506 0.0368565 0.229068 -0.396567 0.901266 0.174511
-0.0151874 0.0326542 0.253767 -0.396567 0.901266 0.174511
-0.0314274 0.069554 0.0262927 -0.396567 0.901266 0.174511
-0.011716 0.0277766 0.286846 -0.396567 0.901266 0.174511
-0.0247224 0.063146 0.074298 -0.356877 0.917706 0.174511
-0.0258209 0.069426 0.0390264 -0.356877 0.917706 0.174511
-0.0127234 0.0357047 0.243079 -0.316507 0.9324 0.174511
-0.0138701 0.0416032 0.209484 -0.316507 0.9324 0.174511
-0.0192764 0.0559726 0.122904 -0.316507 0.9324 0.174511
-0.00789825 0.0251257 0.308348 -0.275535 0.945318 0.174511
-0.0202765 0.0673557 0.0600459 -0.275535 0.945318 0.174511
-0.0215348 0.0688066 0.0501993 -0.275535 0.945318 0.174511
-0.0142715 0.0526217 0.14934 -0.275535 0.945318 0.174511
-0.0155975 0.0551151 0.133741 -0.275535 0.945318 0.174511
-0.0149061 0.0503128 0.160846 -0.275535 0.945318 0.174511
-0.0146221 0.0619654 0.0977013 -0.234039 0.956437 0.174511
-0.00440648 0.0225857 0.327084 -0.192096 0.965735 0.174511
-0.00873711 0.0489909 0.176193 -0.192097 0.965735 0.174511
-0.00916163 0.0445858 0.200103 -0.192096 0.965735 0.174511
-0.0155471 0.0720753 0.0409477 -0.192096 0.965735 0.174511
-0.0118986 0.0677545 0.0688635 -0.14979 0.973195 0.174511
-0.00934651 0.0614347 0.106297 -0.149789 0.973195 0.174511
-0.00997619 0.0657287 0.0818107 -0.149789 0.973195 0.174511
-0.0040385 0.0313625 0.278536 -0.107196 0.978803 0.174511
-0.00328565 0.0288412 0.293139 -0.107196 0.978803 0.174511
-0.00568827 0.0557181 0.140916 -0.107196 0.978803 0.174511
-0.00858993 0.0714125 0.0511057 -0.107196 0.978803 0.174511
-0.00744658 0.0590312 0.121253 -0.107196 0.978803 0.174511
-0.00381588 0.0755221 0.0303037 -0.0644001 0.982547 0.174511
-0.00318223 0.047468 0.18849 -0.064399 0.982547 0.174511
-0.00229864 0.0640059 0.0955811 -0.0214816 0.984421 0.174511
0.000639324 0.0350477 0.25914 0.0214818 0.984421 0.174511
0.000858113 0.0506298 0.171214 0.0214815 0.984421 0.174511
0.00101261 0.0399254 0.231578 0.0214816 0.984421 0.174511
0.00027066 0.0699698 0.0621885 0.0214817 0.984421 0.174511
0.00163712 0.0530783 0.157305 0.0214809 0.984421 0.174511
0.00441975 0.0565001 0.13718 0.0643996 0.982547 0.174511
0.00385074 0.0624895 0.103668 0.0643992 0.982547 0.174511
0.00352437 0.0427392 0.214988 0.0643993 0.982547 0.174511
0.00591787 0.0723999 0.047107 0.0644001 0.982547 0.174511
0.00289608 0.0446783 0.204303 0.064399 0.982547 0.174511
0.00456619 0.0672369 0.0766748 0.0643995 0.982547 0.174511
0.00601091 0.0605618 0.11355 0.107196 0.978803 0.174511
0.00712462 0.0646744 0.0897985 0.107196 0.978803 0.174511
0.00458162 0.0371294 0.245856 0.107196 0.978803 0.174511
0.00660341 0.0471625 0.188244 0.14979 0.973195 0.174511
0.0107439 0.0743319 0.0331746 0.149789 0.973195 0.174511
0.0125766 0.0684024 0.0645433 0.192096 0.965735 0.174511
0.0101769 0.0537735 0.148141 0.192096 0.965735 0.174511
0.0118405 0.0579605 0.123139 0.192097 0.965735 0.174511
0.00600877 0.0253481 0.30994 0.234039 0.956437 0.174511
0.0165257 0.0716385 0.0421331 0.234039 0.956437 0.174511
0.00963753 0.0400653 0.224414 0.234039 0.956437 0.174511
0.015025 0.0615602 0.0993814 0.234039 0.956437 0.174511
0.0172091 0.0591127 0.109541 0.275535 0.945318 0.174511
0.0106845 0.0339072 0.25638 0.275535 0.945318 0.174511
0.0145344 0.0483175 0.172241 0.275535 0.945318 0.174511
0.00972988 0.0297788 0.28017 0.316507 0.9324 0.174511
0.0175123 0.053422 0.139731 0.316507 0.9324 0.174511
0.0178087 0.0502618 0.156079 0.316507 0.9324 0.174511
0.0207819 0.0635035 0.0799366 0.316507 0.9324 0.174511
0.00949751 0.0260719 0.300396 0.356877 0.917706 0.174511
0.0251713 0.0668088 0.0541178 0.356877 0.917706 0.174511
0.0175225 0.0454116 0.182282 0.356877 0.917706 0.174511
0.0219968 0.053692 0.129588 0.356877 0.917706 0.174511
0.00937765 0.0213417 0.325393 0.396567 0.901266 0.174511
0.026878 0.0637201 0.0667606 0.396567 0.901266 0.174511
0.0258704 0.0587272 0.0948361 0.396567 0.901266 0.174511
0.0308082 0.0601146 0.0758302 0.435502 0.883111 0.174511
0.0178626 0.0358496 0.230929 0.435501 0.883111 0.174511
0.0332719 0.0642757 0.0486247 0.435502 0.883111 0.174511
0.0325527 0.0671747 0.0357495 0.435501 0.883111 0.174511
0.0166857 0.0332889 0.246825 0.435501 0.883111 0.174511
0.0216894 0.0415303 0.192617 0.473607 0.863274 0.174511
0.026185 0.0456674 0.159951 0.473607 0.863274 0.174511
0.0379624 0.0663613 0.0256192 0.473608 0.863274 0.174511
0.0200736 0.0369926 0.219449 0.473607 0.863274 0.174511
0.0303196 0.0539688 0.107665 0.473607 0.863274 0.174511
0.015555 0.024875 0.291402 0.510813 0.841793 0.174511
0.0360818 0.0595777 0.0639208 0.510813 0.841793 0.174511
0.034914 0.0555267 0.0868801 0.510813 0.841794 0.174511
0.0318211 0.0508089 0.118691 0.510813 0.841794 0.174511
0.0188439 0.0287949 0.262763 0.547046 0.81871 0.174511
0.0297788 0.0460949 0.147322 0.547046 0.81871 0.174511
0.0139148 0.0211231 0.314206 0.547046 0.81871 0.174511
0.024558 0.0363274 0.209512 0.547046 0.81871 0.174511
0.0360841 0.0522687 0.0985924 0.547046 0.81871 0.174511
0.035559 0.0465112 0.126646 0.582236 0.79407 0.174511
0.0401746 0.0548298 0.0733951 0.582236 0.79407 0.174511
0.0301757 0.0401586 0.173513 0.582236 0.79407 0.174511
0.0449405 0.0601688 0.0332006 0.582236 0.79407 0.174511
0.045017 0.0537204 0.0615459 0.616319 0.767917 0.174511
0.0437599 0.0568722 0.0521164 0.616318 0.767918 0.174511
0.0298201 0.0359735 0.19331 0.616319 0.767918 0.174511
0.0347026 0.040994 0.153917 0.649228 0.740303 0.174511
0.0438858 0.0482348 0.0890363 0.649228 0.740303 0.174511
0.0243935 0.0269564 0.251819 0.649228 0.740303 0.174511
0.0214975 0.0238401 0.275813 0.649228 0.740303 0.174511
0.0268872 0.0289763 0.233912 0.680902 0.71128 0.174511
0.0480027 0.0488965 0.0703328 0.680902 0.71128 0.174511
0.050575 0.0541384 0.0389314 0.680902 0.71128 0.174511
0.0526649 0.0545576 0.0290686 0.680902 0.71128 0.174511
0.0395495 0.0394826 0.141673 0.71128 0.680902 0.174511
0.0379936 0.0354271 0.163838 0.71128 0.680902 0.174511
0.0445128 0.0428771 0.108199 0.71128 0.680902 0.174511
0.0205436 0.0186886 0.300247 0.740303 0.649228 0.174511
0.0359298 0.0324766 0.183681 0.740303 0.649228 0.174511
0.0532045 0.0459769 0.0601745 0.740303 0.649228 0.174511
0.0386131 0.0322177 0.173227 0.767918 0.616318 0.174511
0.0568909 0.0457662 0.0449484 0.767918 0.616319 0.174511
0.0584813 0.0466627 0.034784 0.767918 0.616319 0.174511
0.0273612 0.0210006 0.262355 0.767918 0.616318 0.174511
0.0191674 0.0139138 0.323285 0.79407 0.582236 0.174511
0.0426079 0.0322864 0.155326 0.79407 0.582236 0.174511
0.0328876 0.0237513 0.228032 0.79407 0.582236 0.174511
0.0359634 0.0263013 0.205529 0.79407 0.582236 0.174511
0.0470291 0.0354003 0.12482 0.79407 0.582236 0.174511
0.0455723 0.0316683 0.143851 0.81871 0.547046 0.174511
0.0353926 0.0238096 0.216243 0.81871 0.547046 0.174511
0.053628 0.037038 0.0892255 0.81871 0.547046 0.174511
0.0252108 0.0154852 0.289986 0.841793 0.510813 0.174511
0.0649245 0.0408144 0.0242766 0.841793 0.510813 0.174511
0.0629073 0.0378984 0.0425428 0.841794 0.510813 0.174511
0.0600682 0.0371363 0.0584682 0.841793 0.510813 0.174511
0.0525465 0.0324391 0.1085 0.841793 0.510813 0.174511
0.0448951 0.0247347 0.167707 0.863274 0.473607 0.174511
0.0596742 0.0330001 0.0721663 0.863274 0.473607 0.174511
0.0417635 0.0213851 0.192212 0.883111 0.435501 0.174511
0.0502063 0.0227102 0.146023 0.901266 0.396567 0.174511
0.0545332 0.0238809 0.121017 0.901266 0.396567 0.174511
0.0492681 0.0204215 0.15607 0.901266 0.396567 0.174511
0.0701739 0.0299705 0.0264017 0.901266 0.396567 0.174511
0.0591441 0.0264679 0.0913249 0.901266 0.396567 0.174511
0.0651132 0.0296168 0.053342 0.901266 0.396567 0.174511
0.0371839 0.0139746 0.232804 0.917706 0.356877 0.174511
0.0683127 0.0278774 0.0406754 0.917706 0.356877 0.174511
0.0328516 0.0113792 0.260761 0.9324 0.316507 0.174511
0.0655553 0.0207308 0.0690667 0.9324 0.316507 0.174511
0.0300652 0.00996761 0.278209 0.9324 0.316507 0.174511
0.058309 0.0204867 0.108226 0.9324 0.316507 0.174511
0.0460191 0.0153325 0.183238 0.9324 0.316507 0.174511
0.0431212 0.0132119 0.202477 0.945318 0.275535 0.174511
0.0401812 0.0122209 0.219968 0.945318 0.275535 0.174511
0.0549181 0.0157462 0.134572 0.945318 0.275535 0.174511
0.0678228 0.0200851 0.0578175 0.945318 0.275535 0.174511
0.0630879 0.0185463 0.0858958 0.945318 0.275535 0.174511
0.0258798 0.00686765 0.305874 0.956437 0.234039 0.174511
0.0460778 0.00926465 0.191732 0.965735 0.192096 0.174511
0.0577146 0.0123788 0.123907 0.965735 0.192096 0.174511
0.0376763 0.00632109 0.241388 0.973195 0.14979 0.174511
0.0749661 0.0100795 0.0302082 0.973196 0.149788 0.174511
0.0400005 0.00535145 0.229259 0.973195 0.149789 0.174511
0.0619331 0.0100716 0.102896 0.973195 0.149789 0.174511
0.0549963 0.00742494 0.143852 0.973195 0.149788 0.174511
0.0298429 0.00325713 0.287539 0.978803 0.107196 0.174511
0.0685328 0.00685728 0.0683218 0.978803 0.107197 0.174511
0.0700728 0.00814846 0.0588914 0.978803 0.107196 0.174511
0.0732598 0.00839936 0.0408619 0.978803 0.107196 0.174511
0.0657601 0.00727694 0.0836159 0.978803 0.107196 0.174511
0.0572574 0.0059375 0.132129 0.978803 0.107196 0.174511
0.0492937 0.00545264 0.177094 0.978803 0.107196 0.174511
0.0248593 0.00143976 0.316427 0.982547 0.0643988 0.174511
0.0424467 0.00200264 0.217197 0.982547 0.0643993 0.174511
0.0516257 0.00403212 0.164768 0.982547 0.0643988 0.174511
0.0338804 0.000748827 0.265711 0.984421 0.0214818 0.174511
0.0449146 0.000433084 0.203505 0.984421 0.0214811 0.174511
0.0363318 0.000314053 0.251936 0.984421 0.0214814 0.174511
0.0613024 0.00163997 0.110913 0.984421 0.0214812 0.174511
0.0319064 -0.00026744 0.276906 0.984421 -0.0214818 0.174511
0.0763978 -0.0020515 0.0257089 0.984421 -0.0214802 0.174511
0.0559571 -0.00246879 0.140958 0.982547 -0.0643988 0.174511
0.0662318 -0.00364321 0.0826745 0.982547 -0.0643991 0.174511
0.0581361 -0.00422211 0.128042 0.982547 -0.0643994 0.174511
0.071608 -0.00487796 0.0519493 0.982547 -0.0643996 0.174511
0.0463936 -0.00437991 0.194019 0.978803 -0.107196 0.174511
0.0640545 -0.00775056 0.0928913 0.978803 -0.107197 0.174511
0.0504858 -0.00574012 0.17023 0.978803 -0.107196 0.174511
0.0602119 -0.0075737 0.114552 0.978803 -0.107197 0.174511
0.0680658 -0.00782533 0.0703467 0.978803 -0.107196 0.174511
0.0525597 -0.00513546 0.15897 0.978803 -0.107196 0.174511
0.0401878 -0.00574049 0.22788 0.973195 -0.14979 0.174511
0.0682749 -0.0151254 0.0624432 0.965735 -0.192097 0.174511
0.043786 -0.00970628 0.203929 0.965735 -0.192097 0.174511
0.073162 -0.01321 0.0375067 0.965735 -0.192096 0.174511
0.0656243 -0.016393 0.0752729 0.956437 -0.234039 0.174511
0.0550487 -0.0128165 0.138031 0.956437 -0.234039 0.174511
0.0373551 -0.0095386 0.2394 0.956437 -0.234039 0.174511
0.0277352 -0.00790818 0.294196 0.945318 -0.275535 0.174511
0.0572005 -0.0153851 0.122779 0.945318 -0.275535 0.174511
0.0686152 -0.0203532 0.0531021 0.945318 -0.275535 0.174511
0.0454561 -0.01414 0.188364 0.945318 -0.275535 0.174511
0.0512576 -0.0158847 0.154183 0.945318 -0.275535 0.174511
0.0695066 -0.0240849 0.0418719 0.9324 -0.316507 0.174511
0.03336 -0.0115783 0.257684 0.9324 -0.316507 0.174511
0.0614644 -0.024514 0.083567 0.917706 -0.356877 0.174511
0.0643333 -0.0243856 0.068743 0.917706 -0.356877 0.174511
0.0293241 -0.0116283 0.278936 0.917706 -0.356877 0.174511
0.0595761 -0.0243263 0.093881 0.917706 -0.356877 0.174511
0.0513086 -0.0203956 0.145396 0.917706 -0.356877 0.174511
0.0564832 -0.0231095 0.112634 0.917706 -0.356877 0.174511
0.0243874 -0.0111077 0.305732 0.901266 -0.396567 0.174511
0.064413 -0.0295933 0.0570113 0.901266 -0.396567 0.174511
0.0675586 -0.0323984 0.0341916 0.883111 -0.435501 0.174511
0.0352586 -0.0180424 0.233471 0.883111 -0.435501 0.174511
0.0507819 -0.025911 0.13528 0.883111 -0.435501 0.174511
0.0370828 -0.0203325 0.218301 0.863274 -0.473607 0.174511
0.039586 -0.0219857 0.201431 0.863274 -0.473607 0.174511
0.0525872 -0.0328744 0.10703 0.841794 -0.510813 0.174511
0.0495827 -0.0310875 0.126753 0.841794 -0.510813 0.174511
0.0559736 -0.0343304 0.0864329 0.841794 -0.510813 0.174511
0.0313061 -0.020642 0.245344 0.81871 -0.547046 0.174511
0.0199228 -0.0130423 0.322572 0.81871 -0.547046 0.174511
0.042229 -0.0271778 0.173612 0.81871 -0.547046 0.174511
0.0607646 -0.0417907 0.0408457 0.81871 -0.547046 0.174511
0.0435628 -0.0288537 0.162101 0.81871 -0.547046 0.174511
0.0548684 -0.0406953 0.0714827 0.79407 -0.582236 0.174511
0.0279278 -0.0217663 0.257158 0.767918 -0.616318 0.174511
0.055257 -0.043194 0.0612228 0.767918 -0.616318 0.174511
0.0336021 -0.0279143 0.210476 0.767918 -0.616319 0.174511
0.04061 -0.0368845 0.147429 0.740303 -0.649228 0.174511
0.0364259 -0.0326977 0.180754 0.740303 -0.649228 0.174511
0.048613 -0.0421922 0.0937326 0.740303 -0.649228 0.174511
0.0343557 -0.0312379 0.194967 0.740303 -0.649228 0.174511
0.0437163 -0.0401318 0.122157 0.71128 -0.680902 0.174511
0.053561 -0.0532607 0.0308057 0.71128 -0.680902 0.174511
0.0488297 -0.0484862 0.0687189 0.71128 -0.680902 0.174511
0.0404159 -0.0395936 0.137709 0.71128 -0.680902 0.174511
0.0502841 -0.0504135 0.0552485 0.680902 -0.71128 0.174511
0.0194896 -0.0197326 0.300452 0.680902 -0.71128 0.174511
0.0463691 -0.0468348 0.08511 0.680902 -0.71128 0.174511
0.0438927 -0.0448866 0.102713 0.680902 -0.71128 0.174511
0.0218547 -0.0255386 0.267279 0.649228 -0.740303 0.174511
0.0336931 -0.0396972 0.163174 0.649228 -0.740303 0.174511
0.04602 -0.0561616 0.0472617 0.616318 -0.767918 0.174511
0.0238589 -0.0314104 0.234395 0.582236 -0.79407 0.174511
0.0445833 -0.0619935 0.0260894 0.582236 -0.79407 0.174511
0.0281098 -0.0384371 0.18824 0.582236 -0.79407 0.174511
0.026071 -0.0372257 0.200554 0.582236 -0.79407 0.174511
0.0166251 -0.0250877 0.28711 0.547046 -0.81871 0.174511
0.0210973 -0.0307347 0.246598 0.547046 -0.81871 0.174511
0.0336715 -0.0515468 0.109542 0.547046 -0.81871 0.174511
0.0318792 -0.0471156 0.13595 0.547046 -0.81871 0.174511
0.0243023 -0.0361822 0.210995 0.547046 -0.81871 0.174511
0.0360134 -0.0544151 0.0887447 0.547046 -0.81871 0.174511
0.0389905 -0.0574332 0.0652527 0.547046 -0.81871 0.174511
0.0190547 -0.0296571 0.258057 0.547046 -0.81871 0.174511
0.0220195 -0.0350403 0.223445 0.510813 -0.841793 0.174511
0.0355417 -0.0573938 0.0760367 0.510813 -0.841793 0.174511
0.0386292 -0.0638284 0.0359604 0.510813 -0.841794 0.174511
0.0306468 -0.0505083 0.123578 0.510813 -0.841793 0.174511
0.0280185 -0.0476881 0.144876 0.510813 -0.841794 0.174511
0.0116752 -0.020762 0.322532 0.473607 -0.863274 0.174511
0.0336727 -0.0627225 0.0552617 0.473608 -0.863274 0.174511
0.0229701 -0.045365 0.170031 0.435501 -0.883111 0.174511
0.0267861 -0.0606017 0.0830742 0.396567 -0.901266 0.174511
0.0301988 -0.0668656 0.0429687 0.396567 -0.901266 0.174511
0.0244422 -0.0559388 0.112482 0.396567 -0.901266 0.174511
0.0182901 -0.0423957 0.196406 0.396567 -0.901266 0.174511
0.0248979 -0.0577156 0.10227 0.396567 -0.901266 0.174511
0.0230748 -0.0525217 0.133237 0.396567 -0.901266 0.174511
0.0239024 -0.0651447 0.0654638 0.356877 -0.917706 0.174511
0.0194009 -0.0490848 0.159124 0.356877 -0.917706 0.174511
0.0116105 -0.0309262 0.270547 0.356877 -0.917706 0.174511
0.0168219 -0.04595 0.180883 0.356877 -0.917706 0.174511
0.0189073 -0.056044 0.123192 0.316507 -0.9324 0.174511
0.0105871 -0.0343173 0.254312 0.275535 -0.945318 0.174511
0.00983877 -0.0380977 0.234927 0.234039 -0.956437 0.174511
0.00603085 -0.0251873 0.310792 0.234039 -0.956437 0.174511
0.0135549 -0.0526171 0.150367 0.234039 -0.956437 0.174511
0.0166593 -0.0642635 0.0823742 0.234039 -0.956437 0.174511
0.0166416 -0.0694286 0.0540894 0.234038 -0.956437 0.174511
0.0102051 -0.0459404 0.191453 0.234039 -0.956437 0.174511
0.00607003 -0.0304117 0.281945 0.192096 -0.965735 0.174511
0.00894895 -0.0409798 0.220292 0.192096 -0.965735 0.174511
0.00623123 -0.028597 0.29181 0.192096 -0.965735 0.174511
0.0123886 -0.0590075 0.116742 0.192096 -0.965735 0.174511
0.0126207 -0.0622059 0.0987863 0.192096 -0.965735 0.174511
0.00836934 -0.0430961 0.209218 0.192096 -0.965735 0.174511
0.0146753 -0.0731148 0.0361553 0.192097 -0.965735 0.174511
0.00941488 -0.051609 0.160958 0.192097 -0.965735 0.174511
0.00953851 -0.0553919 0.139832 0.14979 -0.973195 0.174511
0.0111614 -0.0671285 0.0729874 0.149789 -0.973195 0.174511
0.00637374 -0.0659081 0.0833403 0.107197 -0.978803 0.174511
0.00251177 -0.0340346 0.264371 0.0643988 -0.982547 0.174511
0.00197178 -0.0369187 0.248332 0.064399 -0.982547 0.174511
0.00238573 -0.0501557 0.173652 0.0643995 -0.982547 0.174511
0.00154594 -0.0451592 0.201989 0.0214818 -0.984421 0.174511
8.91777e-05 -0.0275016 0.301775 0.0214817 -0.984421 0.174511
0.00249526 -0.0723499 0.0484883 0.0214814 -0.984421 0.174511
0.00151805 -0.0747477 0.0350827 0.0214805 -0.984421 0.174511
0.000225002 -0.0622687 0.105636 0.0214801 -0.984421 0.174511
0.000950902 -0.053607 0.154407 0.0214811 -0.984421 0.174511
0.000165933 -0.0703854 0.0598566 0.0214797 -0.984421 0.174511
-0.00055074 -0.0647718 0.0914757 -0.0214816 -0.984421 0.174511
-0.00271238 -0.0428919 0.214428 -0.0643989 -0.982547 0.174511
-0.00488227 -0.0605498 0.114208 -0.0643997 -0.982547 0.174511
-0.00368149 -0.0585191 0.126085 -0.0643992 -0.982547 0.174511
-0.00264759 -0.0237076 0.322325 -0.107196 -0.978803 0.174511
-0.00633574 -0.0661819 0.0818282 -0.107196 -0.978803 0.174511
-0.00875771 -0.0685735 0.0669265 -0.107197 -0.978803 0.174511
-0.0107209 -0.0754234 0.0271072 -0.149789 -0.973195 0.174511
-0.0103774 -0.0711473 0.0512489 -0.149789 -0.973195 0.174511
-0.00686497 -0.0466334 0.19097 -0.14979 -0.973195 0.174511
-0.00516023 -0.0319636 0.274242 -0.14979 -0.973195 0.174511
-0.00801525 -0.0555637 0.140181 -0.14979 -0.973195 0.174511
-0.0110717 -0.0527933 0.15258 -0.192097 -0.965735 0.174511
-0.0080341 -0.0379326 0.238162 -0.192096 -0.965735 0.174511
-0.0147554 -0.072522 0.0393473 -0.192097 -0.965735 0.174511
-0.00914406 -0.0348615 0.253595 -0.234039 -0.956437 0.174511
-0.0144147 -0.0557031 0.132301 -0.234039 -0.956437 0.174511
-0.0145708 -0.0619465 0.0978739 -0.234039 -0.956437 0.174511
-0.0184302 -0.0592402 0.106922 -0.275535 -0.945318 0.174511
-0.0153586 -0.0492844 0.165702 -0.275535 -0.945318 0.174511
-0.0196712 -0.064369 0.0771806 -0.275535 -0.945318 0.174511
-0.0223591 -0.0719486 0.031878 -0.275535 -0.945318 0.174511
-0.0192194 -0.0624076 0.0885183 -0.275535 -0.945318 0.174511
-0.00820074 -0.0251469 0.307692 -0.316507 -0.9324 0.174511
-0.0149386 -0.0472504 0.177374 -0.316507 -0.9324 0.174511
-0.0236606 -0.0666042 0.058149 -0.316507 -0.9324 0.174511
-0.0239791 -0.068993 0.044808 -0.316507 -0.9324 0.174511
-0.0152346 -0.0426004 0.201682 -0.316507 -0.9324 0.174511
-0.0147104 -0.0396398 0.218385 -0.356877 -0.917706 0.174511
-0.0122666 -0.0321525 0.262756 -0.356877 -0.917706 0.174511
-0.021476 -0.055801 0.119562 -0.356877 -0.917706 0.174511
-0.0114341 -0.028552 0.283393 -0.356877 -0.917706 0.174511
-0.0181029 -0.0432383 0.19248 -0.396567 -0.901266 0.174511
-0.0111252 -0.0263829 0.295387 -0.396567 -0.901266 0.174511
-0.0286604 -0.0613938 0.0747172 -0.435501 -0.883111 0.174511
-0.0282571 -0.0579636 0.0930822 -0.435501 -0.883111 0.174511
-0.0235428 -0.0486316 0.152071 -0.435501 -0.883111 0.174511
-0.0186141 -0.035702 0.229795 -0.473607 -0.863274 0.174511
-0.0340026 -0.0652409 0.0419081 -0.473607 -0.863274 0.174511
-0.0330674 -0.0630846 0.0551133 -0.473607 -0.863274 0.174511
-0.0274394 -0.0489721 0.140199 -0.473607 -0.863274 0.174511
-0.0242821 -0.0433446 0.176606 -0.473607 -0.863274 0.174511
-0.0295704 -0.0550006 0.104593 -0.473607 -0.863274 0.174511
-0.0295189 -0.0501685 0.128519 -0.510813 -0.841793 0.174511
-0.036757 -0.0592415 0.0635665 -0.510813 -0.841794 0.174511
-0.0312647 -0.0512629 0.11813 -0.510813 -0.841793 0.174511
-0.020199 -0.0309493 0.248407 -0.547046 -0.81871 0.174511
-0.0181869 -0.027421 0.271268 -0.547046 -0.81871 0.174511
-0.0354012 -0.0554764 0.0856845 -0.547046 -0.81871 0.174511
-0.0285871 -0.0437393 0.162109 -0.547046 -0.81871 0.174511
-0.0242629 -0.0366253 0.209039 -0.547046 -0.81871 0.174511
-0.0371406 -0.0493802 0.108315 -0.582236 -0.79407 0.174511
-0.0422935 -0.0581436 0.051247 -0.582236 -0.79407 0.174511
-0.0153489 -0.0193301 0.317656 -0.616318 -0.767918 0.174511
-0.0415402 -0.0539493 0.0728176 -0.616318 -0.767918 0.174511
-0.0287781 -0.0354005 0.199511 -0.616318 -0.767918 0.174511
-0.0484186 -0.0585803 0.0281471 -0.616319 -0.767917 0.174511
-0.0309245 -0.0377721 0.181495 -0.616318 -0.767918 0.174511
-0.0431078 -0.0475024 0.0950376 -0.649228 -0.740303 0.174511
-0.036132 -0.0414598 0.146623 -0.649228 -0.740303 0.174511
-0.0380346 -0.0439008 0.12919 -0.649228 -0.740303 0.174511
-0.0200674 -0.0213971 0.291413 -0.680902 -0.71128 0.174511
-0.0185471 -0.0191308 0.306582 -0.680902 -0.71128 0.174511
-0.0374432 -0.0373586 0.158546 -0.71128 -0.680902 0.174511
-0.0274383 -0.0268674 0.240259 -0.71128 -0.680902 0.174511
-0.0508267 -0.0504657 0.0528559 -0.71128 -0.680902 0.174511
-0.0437805 -0.0422776 0.113523 -0.71128 -0.680902 0.174511
-0.0492898 -0.047526 0.0705898 -0.71128 -0.680902 0.174511
-0.0521444 -0.0517839 0.0423418 -0.71128 -0.680902 0.174511
-0.0305607 -0.0293474 0.217856 -0.71128 -0.680902 0.174511
-0.033468 -0.0292413 0.206161 -0.740303 -0.649228 0.174511
-0.0519207 -0.0420656 0.0798887 -0.767918 -0.616318 0.174511
-0.0542583 -0.0440166 0.0627123 -0.767918 -0.616318 0.174511
-0.0369175 -0.0288549 0.192565 -0.767918 -0.616318 0.174511
-0.0270616 -0.0200977 0.266732 -0.79407 -0.582236 0.174511
-0.0455356 -0.0344111 0.134916 -0.79407 -0.582236 0.174511
-0.0603202 -0.0442817 0.0347096 -0.79407 -0.582236 0.174511
-0.0584122 -0.0429926 0.0476925 -0.79407 -0.582236 0.174511
-0.0516266 -0.0371125 0.098187 -0.79407 -0.582236 0.174511
-0.0333664 -0.0226831 0.229281 -0.81871 -0.547046 0.174511
-0.0446228 -0.0307588 0.151157 -0.81871 -0.547046 0.174511
-0.0495964 -0.0319087 0.124218 -0.81871 -0.547046 0.174511
-0.0296222 -0.0195518 0.256662 -0.81871 -0.547046 0.174511
-0.0576355 -0.0369242 0.070781 -0.81871 -0.547046 0.174511
-0.0556632 -0.0346141 0.0870997 -0.841793 -0.510813 0.174511
-0.0660853 -0.0388793 0.0243418 -0.841794 -0.510813 0.174511
-0.0369717 -0.0206852 0.217893 -0.863274 -0.473607 0.174511
-0.0433698 -0.0236803 0.178115 -0.863274 -0.473607 0.174511
-0.0614302 -0.0345704 0.0592179 -0.863274 -0.473607 0.174511
-0.065844 -0.0349967 0.0362269 -0.863274 -0.473608 0.174511
-0.0650991 -0.0328053 0.0456225 -0.883111 -0.435501 0.174511
-0.0540609 -0.0263939 0.117481 -0.883111 -0.435501 0.174511
-0.0467818 -0.021473 0.166521 -0.901266 -0.396567 0.174511
-0.0504492 -0.0222763 0.145755 -0.901266 -0.396567 0.174511
-0.0619344 -0.0247791 0.0805534 -0.917706 -0.356877 0.174511
-0.0442307 -0.0174889 0.188561 -0.917706 -0.356877 0.174511
-0.0596218 -0.0230323 0.0962866 -0.917706 -0.356877 0.174511
-0.0415932 -0.0152131 0.207085 -0.917706 -0.356877 0.174511
-0.0344559 -0.0122991 0.250521 -0.9324 -0.316507 0.174511
-0.0251316 -0.00899812 0.306327 -0.9324 -0.316507 0.174511
-0.0700954 -0.0236002 0.0396051 -0.9324 -0.316507 0.174511
-0.0586192 -0.0186196 0.109955 -0.9324 -0.316507 0.174511
-0.0551356 -0.0192283 0.127463 -0.9324 -0.316507 0.174511
-0.0294819 -0.00982099 0.281591 -0.9324 -0.316507 0.174511
-0.067858 -0.0183734 0.0603298 -0.945318 -0.275535 0.174511
-0.0410108 -0.0113702 0.216817 -0.945318 -0.275535 0.174511
-0.052151 -0.0136548 0.152788 -0.956437 -0.234039 0.174511
-0.0233831 -0.00610624 0.320579 -0.956437 -0.234039 0.174511
-0.0706471 -0.0162746 0.0479033 -0.956437 -0.234038 0.174511
-0.0545622 -0.0133601 0.139968 -0.956437 -0.234039 0.174511
-0.0652987 -0.0146574 0.0793851 -0.956437 -0.234038 0.174511
-0.0673285 -0.0130139 0.0700052 -0.965735 -0.192097 0.174511
-0.0373291 -0.00694555 0.2427 -0.965735 -0.192096 0.174511
-0.0733202 -0.0133163 0.0365143 -0.965735 -0.192097 0.174511
-0.039666 -0.00553436 0.230967 -0.973195 -0.149789 0.174511
-0.0483982 -0.00791503 0.180227 -0.973195 -0.14979 0.174511
-0.0645376 -0.00883555 0.0894324 -0.973195 -0.149788 0.174511
-0.0470233 -0.00585855 0.189579 -0.978803 -0.107196 0.174511
-0.0281447 -0.00256416 0.297489 -0.978803 -0.107196 0.174511
-0.0586496 -0.00617549 0.124174 -0.978803 -0.107196 0.174511
-0.0451891 -0.00410795 0.200942 -0.978803 -0.107196 0.174511
-0.0325272 -0.00262699 0.272816 -0.982547 -0.0643988 0.174511
-0.0568758 -0.00479324 0.134927 -0.982547 -0.0643988 0.174511
-0.0752025 -0.00392088 0.0320645 -0.982547 -0.0644001 0.174511
-0.0624936 -0.00351343 0.10377 -0.982547 -0.0643996 0.174511
-0.0677726 -0.00304323 0.0742207 -0.982547 -0.0644001 0.174511
-0.0723707 -0.00506892 0.0475848 -0.982547 -0.0643994 0.174511
-0.0362166 -0.000153163 0.252605 -0.984421 -0.0214813 0.174511
-0.0532182 -0.00184977 0.15649 -0.984421 -0.0214818 0.174511
-0.050472 8.72488e-05 0.172198 -0.984421 0.0214803 0.174511
-0.0342327 0.000325903 0.263775 -0.984421 0.0214804 0.174511
0.0893089 0.1065 0.0146405 0 1 -0
-0.064184 0.1065 0.00149081 0 1 -0
0.0305477 0.1065 0.00440754 0 1 -0
0.0756351 0.1065 0.00201802 0 1 -0
-0.0167675 0.1065 0.00382376 0 1 -0
0.0677576 0.1065 0.0117026 0 1 -0
0.0439013 0.1065 0.0130449 0 1 -0
-0.0306367 0.1065 0.000149269 0 1 -0
0.016599 0.1065 0.00549962 0 1 -0
-0.0749196 0.1065 0.00911274 0 1 -0
-0.0958664 0.1065 0.0102939 0 1 -0
-0.0523315 0.1065 0.015498 0 1 -0
-0.0184819 0.1065 0.0180109 0 1 -0
-0.0831497 0.1065 0.0151621 0 1 -0
-0.041607 0.1065 0.021466 0 1 -0
0.052937 0.1065 0.0186082 0 1 -0
-0.0302694 0.1065 0.0189037 0 1 -0
-0.000937008 0.1065 0.0134733 0 1 -0
0.0290247 0.1065 0.0167154 0 1 -0
-0.0643819 0.1065 0.0127023 0 1 -0
-0.1065 0.0335589 0.00909057 -1 0 0
-0.1065 0.0513975 0.0145155 -1 0 0
-0.1065 0.091924 0.0115058 -1 0 0
-0.1065 0.091154 0.0221373 -1 0 0
-0.1065 -0.077441 0.000817025 -1 0 0
-0.1065 0.0729958 0.000159587 -1 0 0
-0.1065 -0.0225623 0.00252965 -1 0 0
-0.1065 0.0127997 0.00800845 -1 0 0
-0.1065 -0.0670169 0.00125768 -1 0 0
-0.1065 0.0627011 0.0121142 -1 0 0
-0.1065 0.080582 0.00702841 -1 0 0
-0.1065 0.0630554 0.0233632 -1 0 0
-0.1065 0.00612623 0.0157236 -1 0 0
-0.1065 0.0259974 0.0190745 -1 0 0
-0.1065 -0.017859 0.013393 -1 0 0
-0.1065 -0.0127689 0.0234644 -1 0 0
-0.1065 -0.0561112 0.00891697 -1 0 0
-0.1065 -0.0371922 0.0135798 -1 0 0
-0.1065 -0.0035013 0.0127726 -1 0 0
-0.1065 -0.0869943 0.0177348 -1 0 0
-0.1065 -0.0702498 0.0105433 -1 0 0
-0.1065 -0.0883976 0.00175257 -1 0 0
-0.1065 0.0395531 0.0193561 -1 0 0
-0.0913129 -0.1065 0.0128867 0 -1 0
-0.0732789 -0.1065 0.00714361 0 -1 0
-0.0808216 -0.1065 0.0173557 0 -1 0
-0.0444706 -0.1065 0.00165164 0 -1 0
-0.0175429 -0.1065 0.00298291 0 -1 0
-0.0611176 -0.1065 0.0134299 0 -1 0
-0.0384068 -0.1065 0.0151172 0 -1 0
0.012305 -0.1065 0.000816643 0 -1 0
-0.051875 -0.1065 0.010158 0 -1 0
0.0541527 -0.1065 0.0079882 0 -1 0
0.0943958 -0.1065 0.0115642 0 -1 0
0.00525618 -0.1065 0.0219295 0 -1 0
0.0100076 -0.1065 0.0120006 0 -1 0
-0.0163795 -0.1065 0.0144227 0 -1 0
0.0517593 -0.1065 0.0180563 0 -1 0
0.0212535 -0.1065 0.0201136 0 -1 0
-0.0454997 -0.1065 0.02361 0 -1 0
-0.00476459 -0.1065 0.0184354 0 -1 0
0.0760961 -0.1065 0.0162044 0 -1 0
0.0632881 -0.1065 0.0141756 0 -1 0
0.0392387 -0.1065 0.0146452 0 -1 0
0.0225664 -0.1065 0.00974939 0 -1 0
