ply
format ascii 1.0
comment Created by Open3D
element vertex 820
property double x
property double y
property double z
property double nx
property double ny
property double nz
end_header
-0.0128249 0.0259042 0.29383 -0.435501 0.883111 0.174511
-0.014595 0.0294685 0.271376 -0.435501 0.883111 0.174511
-0.0300018 0.0614172 0.0712511 -0.435501 0.883111 0.174511
-0.0178008 0.0381183 0.219603 -0.435501 0.883111 0.174511
-0.0339252 0.066966 0.0333802 -0.435501 0.883111 0.174511
-0.0325877 0.069838 0.0221842 -0.435501 0.883111 0.174511
-0.0269789 0.0538179 0.117251 -0.435501 0.883111 0.174511
-0.0283919 0.0594621 0.0851623 -0.435501 0.883111 0.174511
-0.0213553 0.0447057 0.177397 -0.435501 0.883111 0.174511
-0.0226132 0.0481018 0.157072 -0.435501 0.883111 0.174511
-0.0211229 0.0463841 0.169371 -0.396567 0.901266 0.174511
-0.0307551 0.0664276 0.043967 -0.396567 0.901266 0.174511
-0.0237461 0.0536809 0.125725 -0.396567 0.901266 0.174511
-0.0334851 0.0736444 0.000491952 -0.396567 0.901266 0.174511
-0.0225615 0.0510948 0.141773 -0.396567 0.901266 0.174511
-0.01898 0.0424792 0.194407 -0.396567 0.901266 0.174511
-0.0134696 0.0335159 0.253126 -0.356877 0.917706 0.174511
-0.00881033 0.0235073 0.315287 -0.356877 0.917706 0.174511
-0.0273304 0.0660745 0.0535639 -0.356877 0.917706 0.174511
-0.0298541 0.0737492 0.00804391 -0.356877 0.917706 0.174511
-0.0237798 0.0651512 0.0656805 -0.356876 0.917706 0.174511
-0.0194652 0.0539278 0.133487 -0.316507 0.9324 0.174511
-0.0123685 0.0360446 0.241907 -0.316507 0.9324 0.174511
-0.0084209 0.0252784 0.30659 -0.316507 0.9324 0.174511
-0.0100913 0.0288405 0.284528 -0.316507 0.9324 0.174511
-0.0125107 0.0388462 0.22668 -0.316507 0.9324 0.174511
-0.0166516 0.0495538 0.16196 -0.316507 0.9324 0.174511
-0.0211041 0.0603086 0.0964224 -0.316507 0.9324 0.174511
-0.022504 0.0694523 0.0450292 -0.316508 0.932399 0.174511
-0.023911 0.0746475 0.0147197 -0.316508 0.932399 0.174511
-0.0141824 0.0410383 0.211936 -0.316507 0.9324 0.174511
-0.0165957 0.0518684 0.149695 -0.316507 0.9324 0.174511
-0.0139235 0.0430148 0.201845 -0.316507 0.9324 0.174511
-0.0251362 0.0726155 0.0233546 -0.316507 0.9324 0.174511
-0.0174169 0.0639051 0.0832526 -0.275534 0.945318 0.174511
-0.0169119 0.0595971 0.107386 -0.275534 0.945318 0.174511
-0.0127531 0.0468018 0.183264 -0.275535 0.945318 0.174511
-0.0199822 0.0729524 0.030193 -0.275534 0.945318 0.174511
-0.0201485 0.0777464 0.00379913 -0.234039 0.956437 0.174511
-0.0145096 0.0578888 0.120195 -0.234039 0.956437 0.174511
-0.00924029 0.038307 0.234583 -0.234039 0.956437 0.174511
-0.0169871 0.0724245 0.0372068 -0.234039 0.956437 0.174511
-0.00888741 0.0493811 0.173867 -0.192096 0.965736 0.174511
-0.014374 0.067489 0.0676198 -0.192096 0.965736 0.174511
-0.0127883 0.071571 0.0467755 -0.192096 0.965736 0.174511
-0.0110059 0.0565234 0.13201 -0.192096 0.965736 0.174511
-0.015923 0.0773653 0.0112596 -0.192096 0.965736 0.174511
-0.00428924 0.0285605 0.293968 -0.14979 0.973195 0.174511
-0.00842751 0.0510753 0.164858 -0.14979 0.973195 0.174511
-0.00614399 0.0426588 0.213754 -0.14979 0.973195 0.174511
-0.00977016 0.0600207 0.113819 -0.14979 0.973195 0.174511
-0.00953647 0.0620341 0.102792 -0.14979 0.973195 0.174511
-0.0078228 0.05839 0.124585 -0.14979 0.973195 0.174511
-0.00407892 0.035519 0.255197 -0.107196 0.978803 0.174511
-0.00210938 0.0225435 0.329184 -0.107196 0.978803 0.174511
-0.00655918 0.0705762 0.057044 -0.107196 0.978803 0.174511
-0.00798987 0.0765839 0.0224689 -0.107196 0.978803 0.174511
-0.00603183 0.0669068 0.077949 -0.107196 0.978803 0.174511
-0.00314331 0.0334413 0.267426 -0.107196 0.978803 0.174511
-0.0039018 0.0406561 0.226493 -0.107196 0.978803 0.174511
-0.00740044 0.078773 0.0105526 -0.107195 0.978803 0.174511
-0.0088267 0.0749677 0.03102 -0.107196 0.978803 0.174511
-0.00211188 0.0245089 0.318152 -0.0643988 0.982547 0.174511
-0.00367674 0.0559421 0.140596 -0.0643992 0.982547 0.174511
-0.00503551 0.0722273 0.0484041 -0.0643994 0.982547 0.174511
-0.0025212 0.045796 0.198148 -0.0643992 0.982547 0.174511
-0.00306144 0.0575553 0.131741 -0.0643996 0.982547 0.174511
-0.0027288 0.0534766 0.154828 -0.0643996 0.982547 0.174511
-0.0069821 0.0804341 0.00147938 -0.0643988 0.982547 0.174511
-0.00507782 0.0692698 0.0650406 -0.0643992 0.982547 0.174511
-0.00334464 0.0490352 0.179607 -0.064399 0.982547 0.174511
-0.00239399 0.0599655 0.118362 -0.0214818 0.984421 0.174511
-0.000480224 0.0752506 0.0323734 -0.0214799 0.984421 0.174511
-0.0012889 0.0658096 0.0855307 -0.0214809 0.984421 0.174511
1.8693e-07 0.031752 0.277809 0.0214818 0.984421 0.174511
0.000245194 0.0396367 0.233301 0.0214818 0.984421 0.174511
8.76469e-05 0.0381663 0.241615 0.0214818 0.984421 0.174511
0.000703569 0.0768571 0.0232834 0.0214814 0.984421 0.174511
0.00126676 0.0478242 0.18699 0.0214813 0.984421 0.174511
0.00256863 0.0714936 0.0533096 0.0214801 0.984421 0.174511
0.00258286 0.0609629 0.112712 0.0214802 0.984421 0.174511
0.000713025 0.0518037 0.164609 0.0214817 0.984421 0.174511
0.000513708 0.0644208 0.0934603 0.0214817 0.984421 0.174511
0.000768346 0.0422745 0.218357 0.0214817 0.984421 0.174511
0.00313982 0.0685196 0.0699793 0.0643988 0.982547 0.174511
0.00255979 0.0547037 0.147981 0.0643988 0.982547 0.174511
0.00559001 0.0668123 0.0786877 0.0644001 0.982547 0.174511
0.00394867 0.0791712 0.00970911 0.064399 0.982547 0.174511
0.00333021 0.0435635 0.210419 0.0643992 0.982547 0.174511
0.00235176 0.0366296 0.24982 0.0643988 0.982547 0.174511
0.00222172 0.0296602 0.289108 0.0643988 0.982547 0.174511
0.00462761 0.0463511 0.194105 0.107196 0.978803 0.174511
0.0056045 0.0626374 0.102158 0.107196 0.978803 0.174511
0.00413881 0.0339623 0.263892 0.107196 0.978803 0.174511
0.00831966 0.0692665 0.0633084 0.107196 0.978803 0.174511
0.00857021 0.0746895 0.0327378 0.107196 0.978803 0.174511
0.00534095 0.0499044 0.173737 0.107196 0.978803 0.174511
0.00565375 0.0557662 0.140667 0.107196 0.978803 0.174511
0.00687265 0.0529761 0.155568 0.107196 0.978803 0.174511
0.00794831 0.0580182 0.12655 0.14979 0.973195 0.174511
0.0120075 0.0698823 0.0569038 0.14979 0.973195 0.174511
0.0102839 0.0589947 0.1191 0.14979 0.973195 0.174511
0.0133962 0.0791791 0.00386683 0.149791 0.973195 0.174511
0.012666 0.0762039 0.0210852 0.14979 0.973195 0.174511
0.00527712 0.026856 0.302494 0.192096 0.965735 0.174511
0.00907791 0.0509285 0.165094 0.192096 0.965735 0.174511
0.0082967 0.0381847 0.236478 0.192096 0.965736 0.174511
0.0134791 0.0718053 0.0447187 0.192096 0.965736 0.174511
0.00854265 0.0395804 0.228483 0.192096 0.965736 0.174511
0.0132335 0.0640934 0.0876665 0.192096 0.965736 0.174511
0.00947759 0.0481968 0.179772 0.192096 0.965736 0.174511
0.0108193 0.0537537 0.147543 0.192096 0.965736 0.174511
0.00955412 0.0442158 0.201718 0.192096 0.965736 0.174511
0.0140684 0.062423 0.0959359 0.234039 0.956437 0.174511
0.0169598 0.0665729 0.069314 0.234039 0.956437 0.174511
0.0177664 0.0766132 0.0132048 0.234039 0.956437 0.174511
0.0147428 0.0653137 0.0791886 0.234039 0.956437 0.174511
0.0138412 0.0603316 0.107703 0.234039 0.956437 0.174511
0.00866124 0.0317854 0.271068 0.275535 0.945318 0.174511
0.0152247 0.0556039 0.131681 0.275535 0.945318 0.174511
0.0221789 0.0734423 0.0240715 0.275534 0.945318 0.174511
0.00960453 0.0291498 0.283758 0.316507 0.9324 0.174511
0.00915343 0.0277646 0.291977 0.316507 0.9324 0.174511
0.0190287 0.0599912 0.101883 0.316507 0.9324 0.174511
0.00748312 0.0236479 0.317002 0.316507 0.9324 0.174511
0.0218607 0.0627627 0.0819385 0.316507 0.9324 0.174511
0.0221938 0.0672104 0.0575702 0.316507 0.9324 0.174511
0.0133475 0.0398834 0.219621 0.316507 0.9324 0.174511
0.0228313 0.0697705 0.0427357 0.316507 0.9324 0.174511
0.02492 0.0709027 0.0328982 0.316508 0.932399 0.174511
0.025728 0.0742106 0.013759 0.316508 0.9324 0.174511
0.0185648 0.0559179 0.124487 0.316507 0.9324 0.174511
0.0271988 0.0762636 0.000122261 0.316508 0.932399 0.174511
0.0122899 0.0352198 0.246456 0.316507 0.9324 0.174511
0.0160865 0.0433558 0.196029 0.356877 0.917706 0.174511
0.00827677 0.0211927 0.32855 0.356877 0.917706 0.174511
0.0191208 0.0504158 0.152698 0.356877 0.917706 0.174511
0.0160189 0.0409003 0.20908 0.356877 0.917706 0.174511
0.0204151 0.0527554 0.137748 0.356877 0.917706 0.174511
0.0247579 0.0591073 0.0954012 0.396567 0.901266 0.174511
0.0247036 0.0559428 0.111867 0.396567 0.901266 0.174511
0.0143925 0.0326554 0.255567 0.396567 0.901266 0.174511
0.0215549 0.0480137 0.159973 0.396567 0.901266 0.174511
0.027322 0.0597158 0.0864317 0.396567 0.901266 0.174511
0.0307348 0.0663997 0.044157 0.396567 0.901266 0.174511
0.0241706 0.052804 0.129289 0.396567 0.901266 0.174511
0.0284055 0.0610237 0.0772144 0.396567 0.901266 0.174511
0.0170995 0.0356452 0.233868 0.435501 0.883111 0.174511
0.0212427 0.0452079 0.175137 0.435501 0.883111 0.174511
0.0293272 0.062681 0.0665392 0.435501 0.883111 0.174511
0.0326729 0.0668582 0.0370509 0.435501 0.883111 0.174511
0.0348461 0.0729147 0.000978973 0.435501 0.883111 0.174511
0.0184508 0.0367999 0.224653 0.435501 0.883111 0.174511
0.0354583 0.0699216 0.0145972 0.435501 0.883111 0.174511
0.0217504 0.0424863 0.187642 0.435501 0.883111 0.174511
0.0258631 0.0487726 0.145464 0.473607 0.863274 0.174511
0.0130103 0.0240195 0.302794 0.473607 0.863274 0.174511
0.0168068 0.0292918 0.26641 0.473607 0.863274 0.174511
0.0296794 0.0549173 0.10471 0.473607 0.863274 0.174511
0.032032 0.0554976 0.0954543 0.473608 0.863274 0.174511
0.0354544 0.0627326 0.0503763 0.473608 0.863274 0.174511
0.0364882 0.0670185 0.0263692 0.473608 0.863274 0.174511
0.0259445 0.0446829 0.165442 0.510813 0.841793 0.174511
0.023079 0.0398205 0.197285 0.510813 0.841793 0.174511
0.038941 0.0624684 0.041608 0.510813 0.841793 0.174511
0.0410591 0.0689183 0.00429551 0.510813 0.841793 0.174511
0.0299812 0.0448054 0.152737 0.547046 0.81871 0.174511
0.0357666 0.0546907 0.0882255 0.547046 0.81871 0.174511
0.0169765 0.0245535 0.288515 0.547046 0.81871 0.174511
0.0245991 0.0364878 0.208631 0.547046 0.81871 0.174511
0.037735 0.0577994 0.0674706 0.547046 0.81871 0.174511
0.0153311 0.0206657 0.311738 0.582236 0.79407 0.174511
0.0181955 0.0252783 0.281193 0.582236 0.79407 0.174511
0.0141351 0.0196904 0.320167 0.582236 0.79407 0.174511
0.0344487 0.0477292 0.124809 0.582236 0.79407 0.174511
0.0452214 0.0610867 0.0280867 0.582236 0.79407 0.174511
0.0438411 0.0578146 0.0475811 0.582236 0.79407 0.174511
0.0328142 0.045727 0.139373 0.582236 0.79407 0.174511
0.0468772 0.0636023 0.0111155 0.582236 0.79407 0.174511
0.0286044 0.0389049 0.18446 0.582236 0.79407 0.174511
0.0370635 0.0505132 0.103417 0.582236 0.79407 0.174511
0.0462065 0.0622827 0.0193579 0.582236 0.79407 0.174511
0.0295111 0.0408011 0.172807 0.582236 0.79407 0.174511
0.0433158 0.0563969 0.0557765 0.616318 0.767918 0.174511
0.0213999 0.0277153 0.259387 0.616318 0.767918 0.174511
0.0230844 0.0298378 0.244098 0.616318 0.767918 0.174511
0.0249493 0.0313521 0.230848 0.616318 0.767918 0.174511
0.0510758 0.0625919 0.00111007 0.616319 0.767918 0.174511
0.0390742 0.0471519 0.111438 0.616319 0.767918 0.174511
0.0410838 0.0527411 0.079746 0.616318 0.767918 0.174511
0.0346603 0.0428154 0.146109 0.616318 0.767918 0.174511
0.0270535 0.0315438 0.222463 0.649228 0.740303 0.174511
0.0299253 0.0337217 0.20254 0.649228 0.740303 0.174511
0.0526339 0.0582442 0.0140294 0.649228 0.740303 0.174511
0.0425903 0.0484221 0.0930615 0.649228 0.740303 0.174511
0.0219398 0.0247328 0.270381 0.649228 0.740303 0.174511
0.028978 0.0318151 0.214153 0.649228 0.740303 0.174511
0.0402308 0.0442594 0.119498 0.649228 0.740303 0.174511
0.0547722 0.0581291 0.00628928 0.680902 0.711279 0.174511
0.0463525 0.0469447 0.0847271 0.680902 0.711279 0.174511
0.0484649 0.0495788 0.0657486 0.680902 0.711279 0.174511
0.0529274 0.0556823 0.0234599 0.680902 0.711279 0.174511
0.0361106 0.0380313 0.161018 0.680902 0.71128 0.174511
0.0470552 0.0487433 0.074654 0.680902 0.711279 0.174511
0.0520289 0.0520401 0.0418107 0.680902 0.711279 0.174511
0.052118 0.0500552 0.0491942 0.711279 0.680902 0.174511
0.041973 0.0397465 0.130766 0.711279 0.680902 0.174511
0.0550689 0.0510775 0.033178 0.711279 0.680902 0.174511
0.0352773 0.0332336 0.183469 0.711279 0.680902 0.174511
0.0358832 0.0303964 0.191618 0.740303 0.649228 0.174511
0.0485306 0.0411675 0.0978944 0.740303 0.649228 0.174511
0.0611635 0.0528122 0.000981936 0.740303 0.649228 0.174511
0.0423904 0.0368339 0.140064 0.740303 0.649228 0.174511
0.0383217 0.0317613 0.176121 0.767918 0.616318 0.174511
0.0400451 0.0324548 0.166089 0.767918 0.616318 0.174511
0.0521427 0.0406143 0.0840373 0.767918 0.616319 0.174511
0.0560274 0.0430567 0.0583171 0.767918 0.616319 0.174511
0.0239171 0.0188843 0.284985 0.767918 0.616318 0.174511
0.0275162 0.021165 0.261093 0.767918 0.616318 0.174511
0.0464682 0.0363756 0.123977 0.767918 0.616319 0.174511
0.0345017 0.0269422 0.20995 0.767918 0.616318 0.174511
0.0527067 0.0420978 0.0763165 0.767918 0.616318 0.174511
0.0419289 0.033824 0.152963 0.767918 0.616318 0.174511
0.05813 0.0454523 0.0406046 0.767918 0.616319 0.174511
0.060748 0.0504344 0.0114894 0.767918 0.616318 0.174511
0.0478366 0.0372491 0.114871 0.767918 0.616319 0.174511
0.0225673 0.0171118 0.297145 0.79407 0.582236 0.174511
0.062694 0.0442402 0.0240468 0.79407 0.582236 0.174511
0.0524399 0.0377754 0.0922746 0.79407 0.582236 0.174511
0.0508718 0.0358554 0.105816 0.79407 0.582236 0.174511
0.0264187 0.0176262 0.277727 0.81871 0.547046 0.174511
0.0372198 0.0255799 0.202122 0.81871 0.547046 0.174511
0.0604796 0.0392064 0.0502841 0.818711 0.547045 0.174511
0.0671406 0.0446044 0.00211296 0.818711 0.547046 0.174511
0.0579351 0.0385422 0.0643035 0.81871 0.547046 0.174511
0.0653164 0.0436786 0.0135732 0.818711 0.547046 0.174511
0.0473596 0.0324069 0.133151 0.81871 0.547046 0.174511
0.0333183 0.0208089 0.235295 0.841793 0.510813 0.174511
0.0368657 0.0214654 0.216261 0.841793 0.510813 0.174511
0.0465796 0.0271626 0.152728 0.841793 0.510813 0.174511
0.0319311 0.0194401 0.245993 0.841793 0.510813 0.174511
0.0201646 0.0109509 0.327452 0.863274 0.473607 0.174511
0.0312529 0.0177452 0.254162 0.863274 0.473607 0.174511
0.0585518 0.0324746 0.0791448 0.863274 0.473607 0.174511
0.0421739 0.0232073 0.185314 0.863274 0.473607 0.174511
0.0569825 0.0306662 0.0918155 0.863274 0.473608 0.174511
0.0616444 0.0342636 0.0589909 0.863274 0.473608 0.174511
0.0294589 0.0160482 0.267642 0.863274 0.473607 0.174511
0.0499159 0.026379 0.138408 0.863274 0.473608 0.174511
0.0457541 0.0258035 0.160558 0.863274 0.473607 0.174511
0.0667732 0.0349733 0.0316935 0.863274 0.473608 0.174511
0.0593954 0.0337684 0.0714605 0.863274 0.473607 0.174511
0.0685457 0.0356651 0.0210446 0.883111 0.435501 0.174511
0.0463083 0.0217327 0.168346 0.883111 0.435501 0.174511
0.0660605 0.0325074 0.0415006 0.883111 0.435501 0.174511
0.0541149 0.0253547 0.119801 0.883111 0.435501 0.174511
0.07116 0.0332174 0.0139228 0.883111 0.435501 0.174511
0.0553688 0.0284283 0.105786 0.883111 0.435501 0.174511
0.0629407 0.0285683 0.0669444 0.901266 0.396567 0.174511
0.0600672 0.0268245 0.0857471 0.901266 0.396567 0.174511
0.0732428 0.032817 0.00408396 0.901266 0.396567 0.174511
0.0529396 0.0237751 0.129488 0.901266 0.396567 0.174511
0.0461199 0.018874 0.175794 0.917706 0.356877 0.174511
0.0665513 0.0262512 0.0532635 0.917706 0.356877 0.174511
0.0593397 0.0234047 0.0970085 0.917706 0.356877 0.174511
0.0716125 0.0272704 0.0245639 0.917706 0.356877 0.174511
0.0686809 0.0252898 0.0440309 0.917706 0.356876 0.174511
0.0326662 0.0119564 0.260689 0.917706 0.356877 0.174511
0.0621829 0.0252445 0.0782948 0.917706 0.356877 0.174511
0.0234468 0.00809312 0.31697 0.9324 0.316507 0.174511
0.0402899 0.0140374 0.216198 0.9324 0.316507 0.174511
0.0276611 0.00884892 0.293083 0.9324 0.316507 0.174511
0.0582404 0.0189616 0.111359 0.9324 0.316507 0.174511
0.0617422 0.0203101 0.0902027 0.9324 0.316507 0.174511
0.0515453 0.0174812 0.149815 0.9324 0.316507 0.174511
0.0745522 0.0251961 0.0128986 0.9324 0.316507 0.174511
0.0447169 0.0141289 0.192379 0.9324 0.316507 0.174511
0.052879 0.0179773 0.14179 0.9324 0.316507 0.174511
0.0462948 0.0140542 0.183956 0.945318 0.275535 0.174511
0.0424359 0.0132693 0.206099 0.945318 0.275535 0.174511
0.0512069 0.0144003 0.156801 0.945318 0.275535 0.174511
0.0320582 0.0090577 0.268964 0.945318 0.275535 0.174511
0.0550937 0.0161903 0.13292 0.945318 0.275535 0.174511
0.0717237 0.0218086 0.0339655 0.945318 0.275535 0.174511
0.0650716 0.0193281 0.0739159 0.945318 0.275535 0.174511
0.0678367 0.0185688 0.0601365 0.945318 0.275534 0.174511
0.0255696 0.00641891 0.308176 0.956437 0.234039 0.174511
0.0377319 0.00980486 0.236978 0.956437 0.234039 0.174511
0.0781684 0.0185418 0.00364135 0.956437 0.234039 0.174511
0.0359682 0.00851011 0.24838 0.956437 0.234039 0.174511
0.0713436 0.0159102 0.0445748 0.956437 0.234039 0.174511
0.0302036 0.00718709 0.281748 0.956437 0.234039 0.174511
0.0503417 0.0109976 0.166229 0.965735 0.192096 0.174511
0.04013 0.00712898 0.226998 0.965736 0.192096 0.174511
0.0594032 0.0112969 0.115753 0.965736 0.192096 0.174511
0.0759713 0.0149755 0.0200168 0.965736 0.192096 0.174511
0.0612362 0.0108864 0.106062 0.965736 0.192096 0.174511
0.0645681 0.0125712 0.0857681 0.965736 0.192096 0.174511
0.0671431 0.0124512 0.0716505 0.965736 0.192096 0.174511
0.0222598 0.00341559 0.329855 0.973195 0.14979 0.174511
0.0628026 0.0110704 0.0971896 0.973195 0.14979 0.174511
0.0428857 0.00646916 0.21221 0.973195 0.14979 0.174511
0.0557809 0.00829635 0.138729 0.973195 0.14979 0.174511
0.0750026 0.0129252 0.0275621 0.973195 0.14979 0.174511
0.0498526 0.00609701 0.173563 0.978803 0.107196 0.174511
0.0466057 0.00573517 0.191997 0.978803 0.107196 0.174511
0.0527611 0.00550612 0.157613 0.978803 0.107196 0.174511
0.0584543 0.00651665 0.12506 0.978803 0.107196 0.174511
0.0789911 0.00886116 0.00843234 0.978803 0.107196 0.174511
0.0543872 0.00572553 0.148358 0.978803 0.107196 0.174511
0.0448461 0.00342462 0.203163 0.982547 0.0643988 0.174511
0.0343455 0.00270626 0.262549 0.982547 0.0643988 0.174511
0.0715484 0.00601218 0.0518663 0.982547 0.0643988 0.174511
0.0807664 0.00441955 0.000554091 0.982547 0.0644002 0.174511
0.0753772 0.00461254 0.0308258 0.982547 0.0643998 0.174511
0.0768401 0.0039062 0.0228497 0.982547 0.0644002 0.174511
0.070446 0.00324115 0.0590958 0.982547 0.0644002 0.174511
0.0677184 0.00479768 0.0738783 0.982547 0.0643992 0.174511
0.0396841 0.00133808 0.2329 0.984421 0.0214818 0.174511
0.0487622 0.00177128 0.181636 0.984421 0.0214818 0.174511
0.0633682 0.00233534 0.0991742 0.984421 0.0214817 0.174511
0.0425742 5.00789e-07 0.216761 0.984421 0.021481 0.174511
0.0573913 0.00194667 0.132938 0.984421 0.0214817 0.174511
0.0790365 0.00188417 0.0108442 0.984421 0.0214807 0.174511
0.0692192 0.000339481 0.066414 0.984421 0.0214801 0.174511
0.0730717 0.00223554 0.0444486 0.984421 0.0214812 0.174511
0.0516041 0.00175944 0.165607 0.984421 0.0214818 0.174511
0.0608983 0.00147422 0.113213 0.984421 0.0214812 0.174511
0.0316741 -0.00068117 0.278165 0.984421 -0.0214818 0.174511
0.0276158 -8.44016e-05 0.301131 0.984421 -0.0214818 0.174511
0.0290393 -0.000106672 0.293099 0.984421 -0.0214818 0.174511
0.0594981 -0.000332632 0.121252 0.984421 -0.0214818 0.174511
0.0715978 -0.00231466 0.0527533 0.984421 -0.0214803 0.174511
0.0661253 -0.00257016 0.0835923 0.984421 -0.0214802 0.174511
0.0622608 -0.00273911 0.105366 0.982547 -0.0643988 0.174511
0.0257873 -0.00123277 0.311278 0.982547 -0.0643988 0.174511
0.0760346 -0.00443567 0.0271896 0.982547 -0.0643993 0.174511
0.0677246 -0.0035422 0.0743068 0.982547 -0.064399 0.174511
0.0475047 -0.00265685 0.188477 0.982547 -0.0643988 0.174511
0.0374273 -0.00267845 0.245208 0.982547 -0.0643989 0.174511
0.0538071 -0.00413925 0.152446 0.982547 -0.0643995 0.174511
0.0804146 -0.00570947 0.00205869 0.982547 -0.0643999 0.174511
0.0735411 -0.00519029 0.04095 0.982547 -0.0643997 0.174511
0.0560271 -0.00430876 0.139884 0.982547 -0.0643995 0.174511
0.0453558 -0.00451481 0.199757 0.978803 -0.107196 0.174511
0.0234179 -0.00209104 0.324292 0.978803 -0.107196 0.174511
0.0356094 -0.00335745 0.255133 0.978803 -0.107196 0.174511
0.0698429 -0.00692719 0.060931 0.978803 -0.107196 0.174511
0.0570321 -0.00715579 0.132644 0.978803 -0.107196 0.174511
0.0743685 -0.00871869 0.034447 0.978803 -0.107196 0.174511
0.0432756 -0.00551442 0.21081 0.978803 -0.107196 0.174511
0.0327819 -0.00394964 0.270629 0.978803 -0.107196 0.174511
0.0785867 -0.00822107 0.0110936 0.978803 -0.107196 0.174511
0.0646643 -0.00854972 0.0889714 0.973195 -0.14979 0.174511
0.0632473 -0.00834361 0.0970502 0.973195 -0.14979 0.174511
0.0791367 -0.0132479 0.00423005 0.973195 -0.14979 0.174511
0.0394435 -0.00636888 0.231492 0.973195 -0.14979 0.174511
0.040735 -0.00682073 0.223902 0.973195 -0.14979 0.174511
0.0681531 -0.0112078 0.0672338 0.973195 -0.14979 0.174511
0.0593709 -0.00817876 0.118809 0.973195 -0.14979 0.174511
0.066553 -0.0118371 0.0755919 0.965735 -0.192096 0.174511
0.0763861 -0.013715 0.0191089 0.965736 -0.192096 0.174511
0.0493237 -0.00922404 0.173815 0.965735 -0.192096 0.174511
0.0750312 -0.0133465 0.0270125 0.965735 -0.192096 0.174511
0.0721814 -0.0138406 0.0422394 0.965736 -0.192096 0.174511
0.0600926 -0.0125908 0.110514 0.965736 -0.192096 0.174511
0.0510781 -0.0115287 0.16152 0.956437 -0.234039 0.174511
0.0694985 -0.0156334 0.0550588 0.956437 -0.234039 0.174511
0.0450282 -0.012628 0.193069 0.945318 -0.275535 0.174511
0.0288376 -0.0084966 0.287296 0.945318 -0.275535 0.174511
0.074969 -0.0218891 0.0162586 0.945318 -0.275534 0.174511
0.0616084 -0.0177227 0.0952107 0.945318 -0.275535 0.174511
0.0553802 -0.0165328 0.130828 0.945318 -0.275535 0.174511
0.0775547 -0.0217451 0.00247924 0.945318 -0.275535 0.174511
0.0568373 -0.016808 0.1225 0.945318 -0.275535 0.174511
0.0639379 -0.0187005 0.0810484 0.945318 -0.275535 0.174511
0.0713989 -0.0215586 0.0361195 0.945318 -0.275534 0.174511
0.0488 -0.0153366 0.168361 0.945318 -0.275534 0.174511
0.0345544 -0.0115077 0.25143 0.9324 -0.316507 0.174511
0.0234454 -0.00756374 0.317938 0.9324 -0.316507 0.174511
0.0366464 -0.0131995 0.237185 0.9324 -0.316507 0.174511
0.0684948 -0.0227409 0.0497158 0.9324 -0.316507 0.174511
0.0720939 -0.0239707 0.0282553 0.9324 -0.316507 0.174511
0.06505 -0.0218831 0.0696767 0.9324 -0.316507 0.174511
0.0516232 -0.0184692 0.147607 0.9324 -0.316507 0.174511
0.0749844 -0.0264699 0.00827869 0.932399 -0.316508 0.174511
0.0465458 -0.0155515 0.180027 0.9324 -0.316507 0.174511
0.0325103 -0.0124177 0.260566 0.917706 -0.356877 0.174511
0.0491229 -0.0197372 0.158236 0.917706 -0.356877 0.174511
0.0403105 -0.0161174 0.21198 0.917706 -0.356877 0.174511
0.0302752 -0.0121833 0.272799 0.917706 -0.356877 0.174511
0.0585593 -0.0235443 0.100827 0.917706 -0.356877 0.174511
0.0658312 -0.0241593 0.0613287 0.917706 -0.356877 0.174511
0.0570366 -0.0216093 0.112792 0.917706 -0.356877 0.174511
0.0536596 -0.0230915 0.127323 0.901266 -0.396567 0.174511
0.0597532 -0.0251691 0.091131 0.901266 -0.396567 0.174511
0.069237 -0.0292526 0.0328719 0.901266 -0.396567 0.174511
0.0742925 -0.0318704 0.000813658 0.901266 -0.396567 0.174511
0.0516074 -0.0223742 0.139552 0.901266 -0.396567 0.174511
0.0411531 -0.0186471 0.202012 0.901266 -0.396567 0.174511
0.0338556 -0.0165176 0.244377 0.883111 -0.435501 0.174511
0.0244643 -0.0126236 0.301619 0.883111 -0.435501 0.174511
0.0587975 -0.0303186 0.0837175 0.883111 -0.435501 0.174511
0.0623324 -0.0308533 0.0644946 0.883111 -0.435501 0.174511
0.0553227 -0.0275554 0.108197 0.883111 -0.435501 0.174511
0.023003 -0.0123379 0.309647 0.863274 -0.473607 0.174511
0.0592287 -0.0337685 0.072285 0.863274 -0.473608 0.174511
0.0643031 -0.0340718 0.0463596 0.863274 -0.473607 0.174511
0.0524972 -0.0287864 0.119105 0.863274 -0.473608 0.174511
0.0666312 -0.03707 0.0267061 0.863274 -0.473608 0.174511
0.0621987 -0.0353243 0.0533705 0.863274 -0.473608 0.174511
0.045683 -0.0249701 0.163171 0.863274 -0.473607 0.174511
0.0693699 -0.0380493 0.0105003 0.863274 -0.473608 0.174511
0.065381 -0.0351501 0.0381007 0.863274 -0.473607 0.174511
0.028802 -0.017209 0.267617 0.841793 -0.510813 0.174511
0.0405194 -0.0239219 0.191447 0.841793 -0.510813 0.174511
0.0338031 -0.0198771 0.235684 0.841793 -0.510813 0.174511
0.026314 -0.0160134 0.283119 0.841793 -0.510813 0.174511
0.0554994 -0.0336761 0.0906355 0.841793 -0.510813 0.174511
0.0668747 -0.0395122 0.0186812 0.841793 -0.510813 0.174511
0.0530733 -0.0336493 0.102417 0.841793 -0.510813 0.174511
0.0695337 -0.0413295 0.000535168 0.841793 -0.510813 0.174511
0.0350496 -0.0214836 0.224969 0.841793 -0.510813 0.174511
0.0300754 -0.0196408 0.254257 0.81871 -0.547046 0.174511
0.0447898 -0.0287932 0.156535 0.81871 -0.547046 0.174511
0.0412515 -0.0263008 0.180947 0.81871 -0.547046 0.174511
0.0587756 -0.038298 0.0611257 0.81871 -0.547046 0.174511
0.0652187 -0.0449728 0.0099746 0.818711 -0.547045 0.174511
0.0486505 -0.0321853 0.127789 0.81871 -0.547046 0.174511
0.0418132 -0.028736 0.170678 0.81871 -0.547046 0.174511
0.0236202 -0.0174944 0.291077 0.79407 -0.582236 0.174511
0.0182391 -0.0137707 0.327986 0.79407 -0.582236 0.174511
0.0458541 -0.0326592 0.139311 0.79407 -0.582236 0.174511
0.0572765 -0.0425766 0.0542484 0.79407 -0.582236 0.174511
0.0493997 -0.0371749 0.108112 0.79407 -0.582236 0.174511
0.0616641 -0.0472345 0.0187432 0.79407 -0.582236 0.174511
0.0365035 -0.0265891 0.202111 0.79407 -0.582236 0.174511
0.0629876 -0.0498579 0.00366986 0.767918 -0.616318 0.174511
0.0558945 -0.0466985 0.0460408 0.767918 -0.616319 0.174511
0.0531058 -0.0430711 0.0711225 0.767918 -0.616319 0.174511
0.0601641 -0.0466387 0.0274638 0.767918 -0.616318 0.174511
0.0585921 -0.0461694 0.0360389 0.767918 -0.616318 0.174511
0.0239447 -0.0210498 0.277035 0.740303 -0.649228 0.174511
0.0534738 -0.0450245 0.0625754 0.740303 -0.649228 0.174511
0.048622 -0.0408346 0.0987452 0.740303 -0.649228 0.174511
0.0318284 -0.0276633 0.218987 0.740303 -0.649228 0.174511
0.0412816 -0.0360674 0.147619 0.740303 -0.649228 0.174511
0.0428954 -0.0381629 0.132978 0.740303 -0.649228 0.174511
0.0494109 -0.0433144 0.0861731 0.740303 -0.649228 0.174511
0.0446808 -0.0406922 0.115994 0.740303 -0.649228 0.174511
0.0175015 -0.0172197 0.318402 0.71128 -0.680902 0.174511
0.0199708 -0.0183764 0.303825 0.71128 -0.680902 0.174511
0.0545249 -0.0542624 0.0229688 0.711279 -0.680902 0.174511
0.0306831 -0.0309914 0.210888 0.680902 -0.71128 0.174511
0.03883 -0.0406919 0.139563 0.680902 -0.711279 0.174511
0.0551119 -0.0575881 0.00716887 0.680902 -0.711279 0.174511
0.0522171 -0.0542428 0.032099 0.680902 -0.711279 0.174511
0.0420998 -0.0457401 0.10623 0.680902 -0.711279 0.174511
0.0467063 -0.0501609 0.0702377 0.680902 -0.711279 0.174511
0.0239826 -0.025874 0.25789 0.680902 -0.711279 0.174511
0.0467461 -0.0480831 0.0785512 0.680902 -0.711279 0.174511
0.0260671 -0.0276315 0.242594 0.680902 -0.71128 0.174511
0.0472124 -0.0537237 0.0533756 0.649228 -0.740303 0.174511
0.0421488 -0.0478653 0.0970661 0.649228 -0.740303 0.174511
0.0492079 -0.0542596 0.0436786 0.649228 -0.740303 0.174511
0.0313167 -0.0356124 0.189343 0.649228 -0.740303 0.174511
0.0393392 -0.044152 0.123271 0.649228 -0.740303 0.174511
0.0328201 -0.0380985 0.173203 0.649228 -0.740303 0.174511
0.0190983 -0.0238672 0.284449 0.616318 -0.767918 0.174511
0.0507306 -0.062874 0.00108789 0.616319 -0.767918 0.174511
0.0414968 -0.0530538 0.0769116 0.616319 -0.767918 0.174511
0.0477255 -0.0594724 0.026669 0.616319 -0.767918 0.174511
0.0366832 -0.0444929 0.131583 0.616318 -0.767918 0.174511
0.0473838 -0.0617502 0.0178528 0.616319 -0.767917 0.174511
0.0327558 -0.0417358 0.157585 0.616318 -0.767918 0.174511
0.016886 -0.0233768 0.294214 0.582236 -0.79407 0.174511
0.0290768 -0.0391669 0.181692 0.582236 -0.79407 0.174511
0.0216898 -0.029533 0.250175 0.582236 -0.79407 0.174511
0.0263167 -0.0369067 0.201186 0.582236 -0.79407 0.174511
0.0302833 -0.0415392 0.166872 0.582236 -0.79407 0.174511
0.0438654 -0.060895 0.0334835 0.582236 -0.79407 0.174511
0.0408182 -0.0562213 0.0649167 0.582236 -0.79407 0.174511
0.0392476 -0.0527071 0.0861467 0.582236 -0.79407 0.174511
0.0240778 -0.0353362 0.215667 0.547046 -0.81871 0.174511
0.0355166 -0.0533484 0.0953063 0.547046 -0.81871 0.174511
0.0340537 -0.049532 0.117797 0.547046 -0.81871 0.174511
0.042229 -0.066092 0.0144788 0.547045 -0.818711 0.174511
0.0254654 -0.0392577 0.19292 0.547046 -0.81871 0.174511
0.0396551 -0.0596589 0.0527277 0.547046 -0.818711 0.174511
0.0354871 -0.0609499 0.0590429 0.510813 -0.841793 0.174511
0.0327102 -0.0566062 0.088124 0.510813 -0.841793 0.174511
0.0288121 -0.0470979 0.1454 0.510813 -0.841793 0.174511
0.0320491 -0.0536729 0.104208 0.510813 -0.841793 0.174511
0.0294343 -0.0487128 0.135788 0.510813 -0.841793 0.174511
0.0303777 -0.0502847 0.125445 0.510813 -0.841793 0.174511
0.0409389 -0.0651752 0.0227029 0.510813 -0.841793 0.174511
0.0216427 -0.0353181 0.223208 0.510813 -0.841793 0.174511
0.0391785 -0.0618675 0.0438113 0.510813 -0.841793 0.174511
0.0164898 -0.0277131 0.274975 0.510813 -0.841793 0.174511
0.0117315 -0.0206632 0.322867 0.473607 -0.863274 0.174511
0.0132854 -0.0240479 0.301907 0.473607 -0.863274 0.174511
0.0385713 -0.0709526 0.00125428 0.473608 -0.863274 0.174511
0.0179904 -0.0333653 0.243046 0.473607 -0.863274 0.174511
0.0353473 -0.0657088 0.0359441 0.473608 -0.863274 0.174511
0.0251558 -0.0457941 0.162117 0.473607 -0.863274 0.174511
0.0161059 -0.0304621 0.262523 0.473607 -0.863274 0.174511
0.0192203 -0.0396998 0.208058 0.435501 -0.883111 0.174511
0.0314086 -0.0650355 0.0494297 0.435501 -0.883111 0.174511
0.0337353 -0.071513 0.010844 0.435501 -0.883111 0.174511
0.0307767 -0.0611752 0.0705422 0.435501 -0.883111 0.174511
0.0204991 -0.0449046 0.178429 0.396567 -0.901266 0.174511
0.0325299 -0.0698344 0.0223389 0.396567 -0.901266 0.174511
0.0191166 -0.0433675 0.189509 0.396567 -0.901266 0.174511
0.0264594 -0.061201 0.0807217 0.396567 -0.901266 0.174511
0.0270651 -0.0645002 0.0623064 0.396567 -0.901266 0.174511
0.0237964 -0.052827 0.130021 0.396567 -0.901266 0.174511
0.0119198 -0.0286559 0.281842 0.396567 -0.901266 0.174511
0.0135404 -0.0341039 0.24989 0.356877 -0.917706 0.174511
0.0230816 -0.0562384 0.113978 0.356877 -0.917706 0.174511
0.0197264 -0.0493016 0.157319 0.356877 -0.917706 0.174511
0.0134811 -0.0367784 0.235947 0.356877 -0.917706 0.174511
0.0238767 -0.0606622 0.0890888 0.356877 -0.917706 0.174511
0.0235487 -0.0577102 0.105284 0.356877 -0.917706 0.174511
0.0253053 -0.0665879 0.0550054 0.356877 -0.917706 0.174511
0.0305815 -0.0748639 0.000694292 0.356877 -0.917706 0.174511
0.00912707 -0.0282294 0.289542 0.316507 -0.9324 0.174511
0.0177832 -0.0515971 0.14899 0.316507 -0.9324 0.174511
0.0247194 -0.0742624 0.0153114 0.316508 -0.9324 0.174511
0.0241719 -0.0692217 0.0432366 0.316507 -0.9324 0.174511
0.00663149 -0.0217324 0.328729 0.275535 -0.945318 0.174511
0.0067883 -0.0240281 0.316046 0.275535 -0.945318 0.174511
0.00971919 -0.0319116 0.268714 0.275535 -0.945318 0.174511
0.0204483 -0.0715775 0.0369051 0.275534 -0.945318 0.174511
0.0216067 -0.0774452 0.00329117 0.275534 -0.945318 0.174511
0.014813 -0.0547545 0.136932 0.275534 -0.945318 0.174511
0.0133778 -0.0485336 0.172897 0.275535 -0.945318 0.174511
0.0164571 -0.0599367 0.106264 0.275534 -0.945318 0.174511
0.0191748 -0.0647688 0.0757984 0.275535 -0.945318 0.174511
0.0113763 -0.0396161 0.224363 0.275535 -0.945318 0.174511
0.00954032 -0.033724 0.259179 0.275535 -0.945318 0.174511
0.0115059 -0.0436586 0.202214 0.234039 -0.956437 0.174511
0.0117456 -0.0503378 0.165286 0.234039 -0.956437 0.174511
0.0189864 -0.0739569 0.0261269 0.234039 -0.956437 0.174511
0.0139093 -0.0581705 0.119456 0.234039 -0.956437 0.174511
0.0171298 -0.0767523 0.0132964 0.234039 -0.956437 0.174511
0.0141013 -0.0566654 0.127447 0.234039 -0.956437 0.174511
0.0165615 -0.0691113 0.055936 0.234039 -0.956437 0.174511
0.0096119 -0.0540333 0.147325 0.192096 -0.965736 0.174511
0.0132937 -0.0680668 0.0656112 0.192096 -0.965736 0.174511
0.0109958 -0.0622654 0.100246 0.192096 -0.965736 0.174511
0.00818013 -0.0465181 0.190484 0.14979 -0.973195 0.174511
0.00472608 -0.0358467 0.25296 0.14979 -0.973195 0.174511
0.0123337 -0.0723396 0.0429205 0.14979 -0.973195 0.174511
0.00582737 -0.0383603 0.237997 0.14979 -0.973195 0.174511
0.0100761 -0.066576 0.0770003 0.14979 -0.973195 0.174511
0.0107961 -0.0640047 0.0907216 0.14979 -0.973195 0.174511
0.00625276 -0.0421675 0.216401 0.14979 -0.973195 0.174511
0.0125403 -0.079287 0.00399949 0.14979 -0.973195 0.174511
0.0070765 -0.0615561 0.107319 0.107196 -0.978803 0.174511
0.00593883 -0.0595108 0.119489 0.107196 -0.978803 0.174511
0.00671835 -0.0557144 0.140304 0.107196 -0.978803 0.174511
0.00874455 -0.0762953 0.0236243 0.107196 -0.978803 0.174511
0.00242301 -0.0268815 0.304661 0.107196 -0.978803 0.174511
0.00750582 -0.078099 0.0142684 0.107196 -0.978803 0.174511
0.00750883 -0.0718452 0.049343 0.107196 -0.978803 0.174511
0.00170103 -0.0336866 0.26663 0.064399 -0.982547 0.174511
0.00480265 -0.0660364 0.083347 0.0643992 -0.982547 0.174511
0.00376274 -0.0797143 0.00672017 0.0644004 -0.982547 0.174511
0.00265175 -0.0440407 0.207983 0.0643991 -0.982547 0.174511
0.00330318 -0.0519549 0.163183 0.0643992 -0.982547 0.174511
0.00185664 -0.037506 0.245068 0.0643991 -0.982547 0.174511
0.00329688 -0.0743254 0.037233 0.0644004 -0.982547 0.174511
0.000764704 -0.0240403 0.321217 0.0214818 -0.984421 0.174511
0.00126598 -0.0501639 0.173791 0.0214815 -0.984421 0.174511
0.000368924 -0.0483455 0.184159 0.021481 -0.984421 0.174511
0.000586716 -0.0641252 0.0951192 0.0214805 -0.984421 0.174511
0.00147423 -0.0610611 0.112295 0.0214812 -0.984421 0.174511
0.000971939 -0.0694024 0.0653025 0.0214805 -0.984421 0.174511
0.00142784 -0.0464408 0.194774 0.0214818 -0.984421 0.174511
-0.000229636 -0.0319964 0.276402 -0.0214818 -0.984421 0.174511
-0.000650952 -0.0282606 0.297424 -0.0214818 -0.984421 0.174511
-0.000778092 -0.0772873 0.0208479 -0.0214813 -0.984421 0.174511
-0.00258793 -0.062383 0.104701 -0.0214802 -0.984421 0.174511
-0.0015635 -0.0581653 0.128618 -0.021481 -0.984421 0.174511
-0.00043348 -0.0759189 0.0286092 -0.0214816 -0.984421 0.174511
-0.00309365 -0.0653355 0.0879239 -0.0643988 -0.982547 0.174511
-0.00439785 -0.0715782 0.0522942 -0.0643994 -0.982547 0.174511
-0.00366272 -0.0557734 0.141551 -0.0643992 -0.982547 0.174511
-0.00427182 -0.0531631 0.156023 -0.0643996 -0.982547 0.174511
-0.00362717 -0.0804547 0.0026012 -0.0643988 -0.982547 0.174511
-0.00375611 -0.0430631 0.213079 -0.0643994 -0.982547 0.174511
-0.00384378 -0.0680475 0.0723779 -0.0643991 -0.982547 0.174511
-0.00541676 -0.0782701 0.0142412 -0.0643998 -0.982547 0.174511
-0.00273668 -0.029943 0.287297 -0.107196 -0.978803 0.174511
-0.00253935 -0.0226725 0.328197 -0.107196 -0.978803 0.174511
-0.00981131 -0.0765883 0.0213256 -0.107195 -0.978803 0.174511
-0.00489097 -0.0444635 0.204531 -0.107196 -0.978803 0.174511
-0.00675362 -0.066315 0.0808248 -0.107196 -0.978803 0.174511
-0.00629829 -0.0491247 0.177522 -0.107196 -0.978803 0.174511
-0.00641424 -0.0604167 0.114116 -0.107196 -0.978803 0.174511
-0.0069437 -0.0734147 0.040887 -0.107196 -0.978803 0.174511
-0.00524412 -0.0415936 0.22041 -0.107196 -0.978803 0.174511
-0.0103884 -0.0787931 0.00860103 -0.14979 -0.973195 0.174511
-0.00482984 -0.0356366 0.254043 -0.14979 -0.973195 0.174511
-0.0100838 -0.0750939 0.0294918 -0.14979 -0.973195 0.174511
-0.0101483 -0.058725 0.120721 -0.14979 -0.973195 0.174511
-0.00932268 -0.0627887 0.0987671 -0.14979 -0.973195 0.174511
-0.00740306 -0.046407 0.191771 -0.14979 -0.973195 0.174511
-0.0125175 -0.0703342 0.0539181 -0.192096 -0.965735 0.174511
-0.00987461 -0.055856 0.136949 -0.192096 -0.965735 0.174511
-0.00538576 -0.0252481 0.311273 -0.192096 -0.965735 0.174511
-0.0120742 -0.0668474 0.0737021 -0.192096 -0.965735 0.174511
-0.0113066 -0.0570455 0.12879 -0.192096 -0.965736 0.174511
-0.0162811 -0.0792252 0.000572862 -0.192096 -0.965736 0.174511
-0.00770158 -0.0394713 0.230013 -0.192096 -0.965735 0.174511
-0.0173519 -0.0733805 0.031478 -0.234039 -0.956437 0.174511
-0.0151943 -0.0630954 0.0907406 -0.234039 -0.956437 0.174511
-0.014979 -0.0597429 0.109403 -0.234039 -0.956437 0.174511
-0.0172047 -0.064564 0.0799955 -0.234039 -0.956437 0.174511
-0.0174629 -0.0762347 0.0156862 -0.234039 -0.956437 0.174511
-0.00883438 -0.0335339 0.261287 -0.234039 -0.956437 0.174511
-0.0158078 -0.0680502 0.0627626 -0.234039 -0.956437 0.174511
-0.0103385 -0.0373433 0.238312 -0.275535 -0.945318 0.174511
-0.0156214 -0.0525648 0.147517 -0.275535 -0.945318 0.174511
-0.0119836 -0.041275 0.214417 -0.275535 -0.945318 0.174511
-0.0201099 -0.0694554 0.0489347 -0.275535 -0.945318 0.174511
-0.0178415 -0.0605298 0.100866 -0.275535 -0.945318 0.174511
-0.00940204 -0.0275928 0.292444 -0.316507 -0.9324 0.174511
-0.0237751 -0.0731075 0.0231944 -0.316507 -0.9324 0.174511
-0.0175875 -0.0542941 0.134936 -0.316507 -0.9324 0.174511
-0.0228468 -0.0667733 0.0587212 -0.316507 -0.9324 0.174511
-0.0248773 -0.0691144 0.0425305 -0.316508 -0.932399 0.174511
-0.0255366 -0.0707654 0.0325134 -0.316508 -0.932399 0.174511
-0.0162684 -0.0474681 0.173798 -0.316507 -0.9324 0.174511
-0.0204684 -0.0568728 0.115933 -0.316508 -0.9324 0.174511
-0.0112486 -0.0309698 0.271052 -0.316507 -0.9324 0.174511
-0.015837 -0.0423532 0.201812 -0.356877 -0.917706 0.174511
-0.0185663 -0.0451945 0.181289 -0.356877 -0.917706 0.174511
-0.0244018 -0.0634328 0.073445 -0.356877 -0.917706 0.174511
-0.0287801 -0.0754825 0.00112515 -0.356877 -0.917706 0.174511
-0.0282874 -0.0729297 0.0155573 -0.356877 -0.917706 0.174511
-0.0241076 -0.0617764 0.0827572 -0.356877 -0.917706 0.174511
-0.0188512 -0.0492537 0.15936 -0.356877 -0.917706 0.174511
-0.0270237 -0.0666874 0.050968 -0.356876 -0.917706 0.174511
-0.0145646 -0.0347707 0.244252 -0.396567 -0.901266 0.174511
-0.0246261 -0.0568621 0.107296 -0.396567 -0.901266 0.174511
-0.0333118 -0.0723136 0.00775837 -0.396567 -0.901266 0.174511
-0.0173428 -0.0382267 0.22009 -0.396567 -0.901266 0.174511
-0.0253715 -0.0536086 0.122322 -0.435501 -0.883111 0.174511
-0.0203361 -0.0427542 0.189816 -0.435501 -0.883111 0.174511
-0.0161032 -0.0319932 0.254836 -0.435501 -0.883111 0.174511
-0.0229593 -0.04594 0.167148 -0.435501 -0.883111 0.174511
-0.034269 -0.0670403 0.0321461 -0.435501 -0.883111 0.174511
-0.0317985 -0.0623615 0.0619886 -0.435501 -0.883111 0.174511
-0.0178374 -0.0353417 0.233563 -0.435501 -0.883111 0.174511
-0.0254338 -0.0488269 0.14636 -0.473607 -0.863274 0.174511
-0.0329152 -0.05941 0.0737039 -0.473608 -0.863274 0.174511
-0.0338642 -0.0643296 0.0467921 -0.473607 -0.863274 0.174511
-0.0328929 -0.0577577 0.0819378 -0.473608 -0.863274 0.174511
-0.0211247 -0.0387523 0.207892 -0.473607 -0.863274 0.174511
-0.0361961 -0.0675116 0.0247227 -0.473607 -0.863274 0.174511
-0.0395451 -0.0687661 0.00942807 -0.473608 -0.863273 0.174511
-0.0300698 -0.056985 0.0934219 -0.473607 -0.863274 0.174511
-0.0263878 -0.0463164 0.15619 -0.473608 -0.863274 0.174511
-0.0222307 -0.0401998 0.19773 -0.473607 -0.863274 0.174511
-0.017109 -0.029485 0.264615 -0.510813 -0.841793 0.174511
-0.0336382 -0.0531348 0.102153 -0.510813 -0.841793 0.174511
-0.0298693 -0.0497844 0.129346 -0.510813 -0.841793 0.174511
-0.0303772 -0.0478892 0.137001 -0.510813 -0.841793 0.174511
-0.0125423 -0.0197271 0.325052 -0.510813 -0.841793 0.174511
-0.0145776 -0.0226573 0.30493 -0.547046 -0.81871 0.174511
-0.0170516 -0.02469 0.287639 -0.547046 -0.81871 0.174511
-0.0335828 -0.0494531 0.119643 -0.547046 -0.81871 0.174511
-0.0393268 -0.0574211 0.0642554 -0.547046 -0.818711 0.174511
-0.0448006 -0.0641388 0.0155808 -0.547045 -0.818711 0.174511
-0.0413187 -0.0632056 0.0308738 -0.547046 -0.81871 0.174511
-0.0244855 -0.0352549 0.214771 -0.547046 -0.81871 0.174511
-0.0318626 -0.0451845 0.145016 -0.582236 -0.79407 0.174511
-0.032529 -0.0429825 0.152812 -0.582236 -0.79407 0.174511
-0.0428424 -0.0593932 0.0437298 -0.582236 -0.79407 0.174511
-0.0461707 -0.0658032 0.00345812 -0.582236 -0.79407 0.174511
-0.0298048 -0.0398858 0.175992 -0.582236 -0.79407 0.174511
-0.0203322 -0.0255437 0.272714 -0.616318 -0.767918 0.174511
-0.0375903 -0.0486462 0.110103 -0.616318 -0.767918 0.174511
-0.0288358 -0.0357064 0.197962 -0.616318 -0.767918 0.174511
-0.0449632 -0.05626 0.0505606 -0.616318 -0.767918 0.174511
-0.0299471 -0.0366972 0.189677 -0.616318 -0.767918 0.174511
-0.0489484 -0.058479 0.0267219 -0.616319 -0.767917 0.174511
-0.0182369 -0.0215141 0.297811 -0.649228 -0.740303 0.174511
-0.0167538 -0.0187901 0.314884 -0.649228 -0.740303 0.174511
-0.037336 -0.0432911 0.134375 -0.649228 -0.740303 0.174511
-0.0491334 -0.0548611 0.0414041 -0.649228 -0.740303 0.174511
-0.0443077 -0.0524818 0.0694502 -0.649228 -0.740303 0.174511
-0.0417205 -0.0473381 0.100896 -0.649228 -0.740303 0.174511
-0.0442201 -0.0503051 0.0790101 -0.649228 -0.740303 0.174511
-0.0351919 -0.0378576 0.16531 -0.680902 -0.71128 0.174511
-0.0445887 -0.046769 0.0923251 -0.680902 -0.711279 0.174511
-0.0413472 -0.0440272 0.116148 -0.680902 -0.71128 0.174511
-0.0476871 -0.0511949 0.0621964 -0.680902 -0.71128 0.174511
-0.0280661 -0.0286182 0.230772 -0.680902 -0.711279 0.174511
-0.0554638 -0.0587902 0.000896125 -0.680902 -0.711279 0.174511
-0.0528519 -0.0535135 0.0325945 -0.680902 -0.711279 0.174511
-0.0307942 -0.0307044 0.211609 -0.71128 -0.680902 0.174511
-0.0378269 -0.0375996 0.156042 -0.71128 -0.680902 0.174511
-0.0516885 -0.0489764 0.0551545 -0.711279 -0.680902 0.174511
-0.056784 -0.0552293 0.00998833 -0.711279 -0.680902 0.174511
-0.0553568 -0.0546252 0.0181625 -0.71128 -0.680902 0.174511
-0.0406004 -0.0388392 0.1399 -0.711279 -0.680902 0.174511
-0.0265582 -0.0246631 0.252446 -0.711279 -0.680902 0.174511
-0.0285158 -0.0260822 0.238922 -0.740303 -0.649228 0.174511
-0.0234211 -0.020852 0.279992 -0.740303 -0.649228 0.174511
-0.0428937 -0.0389294 0.130133 -0.740303 -0.649228 0.174511
-0.0253182 -0.0223258 0.266461 -0.740303 -0.649228 0.174511
-0.0502367 -0.0442591 0.0791552 -0.740303 -0.649228 0.174511
-0.0608256 -0.0529996 0.00171832 -0.740303 -0.649228 0.174511
-0.0552001 -0.0472465 0.0469859 -0.740303 -0.649228 0.174511
-0.0339456 -0.029527 0.203072 -0.740303 -0.649228 0.174511
-0.0481476 -0.0415824 0.0979756 -0.740303 -0.649228 0.174511
-0.0427768 -0.0339716 0.148711 -0.767918 -0.616318 0.174511
-0.0576162 -0.0462591 0.0400162 -0.767918 -0.616318 0.174511
-0.0477786 -0.0387694 0.109757 -0.767918 -0.616318 0.174511
-0.0622065 -0.0491398 0.00964337 -0.767918 -0.616319 0.174511
-0.0189598 -0.0142792 0.32301 -0.79407 -0.582236 0.174511
-0.042041 -0.0319825 0.15892 -0.79407 -0.582236 0.174511
-0.0386028 -0.02926 0.183648 -0.79407 -0.582236 0.174511
-0.0398326 -0.0300299 0.175483 -0.79407 -0.582236 0.174511
-0.0418736 -0.029635 0.167514 -0.79407 -0.582236 0.174511
-0.0330897 -0.0244747 0.224699 -0.79407 -0.582236 0.174511
-0.0575447 -0.0410847 0.0580055 -0.79407 -0.582236 0.174511
-0.0528033 -0.0394556 0.0850154 -0.79407 -0.582236 0.174511
-0.0304445 -0.0217517 0.245821 -0.79407 -0.582236 0.174511
-0.0624388 -0.0465437 0.0175226 -0.79407 -0.582236 0.174511
-0.0601269 -0.0459007 0.0301875 -0.79407 -0.582236 0.174511
-0.0544547 -0.0412001 0.0716806 -0.79407 -0.582236 0.174511
-0.0376699 -0.0281255 0.191678 -0.79407 -0.582236 0.174511
-0.0483756 -0.0348089 0.120666 -0.79407 -0.582236 0.174511
-0.0217538 -0.0149384 0.308038 -0.81871 -0.547046 0.174511
-0.0532729 -0.0351894 0.0966862 -0.81871 -0.547046 0.174511
-0.0469918 -0.0321007 0.135836 -0.81871 -0.547046 0.174511
-0.0605091 -0.0404796 0.0461544 -0.81871 -0.547046 0.174511
-0.0245961 -0.0156347 0.292514 -0.841793 -0.510813 0.174511
-0.0632225 -0.0389132 0.0380516 -0.841793 -0.510813 0.174511
-0.0592125 -0.035727 0.0667214 -0.841793 -0.510813 0.174511
-0.0522736 -0.0304989 0.115496 -0.841793 -0.510813 0.174511
-0.0669534 -0.0413845 0.0128215 -0.841793 -0.510813 0.174511
-0.0695464 -0.0412662 0.000659312 -0.841793 -0.510813 0.174511
-0.037743 -0.0211135 0.212915 -0.863274 -0.473607 0.174511
-0.0394615 -0.020832 0.205178 -0.863274 -0.473608 0.174511
-0.06226 -0.033931 0.0568485 -0.863274 -0.473608 0.174511
-0.04755 -0.0255627 0.152327 -0.863274 -0.473608 0.174511
-0.0593326 -0.0319138 0.0768041 -0.863274 -0.473608 0.174511
-0.0322437 -0.0160765 0.253635 -0.883111 -0.435501 0.174511
-0.0712973 -0.035534 0.00744693 -0.883111 -0.435501 0.174511
-0.0595192 -0.0288173 0.0838117 -0.883111 -0.435501 0.174511
-0.0652674 -0.0311014 0.0490229 -0.883111 -0.435501 0.174511
-0.0344319 -0.016058 0.242608 -0.883111 -0.435501 0.174511
-0.0689136 -0.0332887 0.0251127 -0.883111 -0.435501 0.174511
-0.06738 -0.0324714 0.0349135 -0.883111 -0.435501 0.174511
-0.0445041 -0.020217 0.181138 -0.901266 -0.396567 0.174511
-0.0229253 -0.010183 0.315385 -0.901266 -0.396567 0.174511
-0.0567762 -0.025214 0.106403 -0.901266 -0.396567 0.174511
-0.037442 -0.0163697 0.226354 -0.901266 -0.396567 0.174511
-0.0595328 -0.0255306 0.0914477 -0.901266 -0.396567 0.174511
-0.0540316 -0.0226155 0.126483 -0.901266 -0.396567 0.174511
-0.0509458 -0.0215557 0.144828 -0.901266 -0.396567 0.174511
-0.0461546 -0.0199358 0.173253 -0.901266 -0.396567 0.174511
-0.0631592 -0.0285891 0.0657689 -0.901266 -0.396567 0.174511
-0.0362458 -0.0156592 0.234146 -0.901266 -0.396567 0.174511
-0.0305347 -0.0122567 0.271284 -0.917706 -0.356877 0.174511
-0.0318372 -0.0125489 0.263837 -0.917706 -0.356877 0.174511
-0.0657229 -0.0266782 0.0567468 -0.917706 -0.356877 0.174511
-0.0725916 -0.0279385 0.0180489 -0.917706 -0.356877 0.174511
-0.0630175 -0.024549 0.075328 -0.917706 -0.356877 0.174511
-0.0529232 -0.020249 0.137205 -0.917706 -0.356877 0.174511
-0.0263606 -0.00935508 0.299113 -0.9324 -0.316507 0.174511
-0.0700374 -0.0240411 0.0391153 -0.9324 -0.316507 0.174511
-0.0571571 -0.0182987 0.118349 -0.9324 -0.316508 0.174511
-0.0761563 -0.0273544 0.000413385 -0.9324 -0.316507 0.174511
-0.0441115 -0.01407 0.19572 -0.9324 -0.316507 0.174511
-0.0496307 -0.0169744 0.160964 -0.9324 -0.316507 0.174511
-0.0221014 -0.00691786 0.326278 -0.945318 -0.275535 0.174511
-0.0290104 -0.00875141 0.285958 -0.945318 -0.275535 0.174511
-0.0615698 -0.0174058 0.0959203 -0.945318 -0.275534 0.174511
-0.0490248 -0.0143647 0.168678 -0.945318 -0.275535 0.174511
-0.0764248 -0.0213894 0.00916146 -0.945318 -0.275534 0.174511
-0.0736465 -0.0207525 0.0252171 -0.945318 -0.275534 0.174511
-0.0424149 -0.0117017 0.208688 -0.945318 -0.275535 0.174511
-0.0632444 -0.0196556 0.0832971 -0.945318 -0.275535 0.174511
-0.0408882 -0.0104675 0.21879 -0.956437 -0.234039 0.174511
-0.0306884 -0.00788137 0.27816 -0.956437 -0.234039 0.174511
-0.0547719 -0.0127047 0.139698 -0.956437 -0.234039 0.174511
-0.0661167 -0.0169885 0.0717758 -0.956437 -0.234039 0.174511
-0.0479033 -0.0116305 0.178783 -0.956437 -0.234039 0.174511
-0.0678686 -0.0164347 0.0629171 -0.956437 -0.234039 0.174511
-0.0728115 -0.0188596 0.0325743 -0.956437 -0.234039 0.174511
-0.0371034 -0.00847325 0.242208 -0.956437 -0.234039 0.174511
-0.0563659 -0.0144762 0.128586 -0.956437 -0.234039 0.174511
-0.0263652 -0.00496305 0.305556 -0.965735 -0.192096 0.174511
-0.0526981 -0.00978901 0.154519 -0.965736 -0.192096 0.174511
-0.0468184 -0.0088175 0.188126 -0.965736 -0.192096 0.174511
-0.0791663 -0.0169251 0.000189807 -0.965736 -0.192096 0.174511
-0.0775568 -0.0142859 0.012002 -0.965736 -0.192096 0.174511
-0.0762781 -0.0136902 0.0197338 -0.965736 -0.192096 0.174511
-0.0655119 -0.0122081 0.080945 -0.965736 -0.192096 0.174511
-0.0709791 -0.012812 0.0500252 -0.965736 -0.192096 0.174511
-0.0680432 -0.0101602 0.0687456 -0.973195 -0.14979 0.174511
-0.0338434 -0.00472455 0.264133 -0.973195 -0.14979 0.174511
-0.0598449 -0.00952776 0.115008 -0.973195 -0.14979 0.174511
-0.0734452 -0.0107976 0.0380732 -0.973195 -0.14979 0.174511
-0.0405013 -0.00523394 0.226543 -0.978803 -0.107196 0.174511
-0.0243854 -0.0023827 0.318686 -0.978803 -0.107196 0.174511
-0.0459948 -0.0058515 0.195352 -0.978803 -0.107196 0.174511
-0.0704357 -0.00655307 0.0578356 -0.978803 -0.107196 0.174511
-0.0630452 -0.00787426 0.0984762 -0.978803 -0.107196 0.174511
-0.0751399 -0.00978908 0.029463 -0.978803 -0.107196 0.174511
-0.054781 -0.00572505 0.146149 -0.978803 -0.107196 0.174511
-0.0506859 -0.00507628 0.169516 -0.978803 -0.107196 0.174511
-0.044336 -0.00519796 0.205057 -0.978803 -0.107196 0.174511
-0.0617771 -0.0064624 0.106456 -0.978803 -0.107196 0.174511
-0.0283928 -0.00240723 0.296175 -0.982547 -0.0643988 0.174511
